ply
format ascii 1.0
comment PCL generated
element vertex 1446
property float x
property float y
property float z
element camera 0
property float view_px
property float view_py
property float view_pz
property float x_axisx
property float x_axisy
property float x_axisz
property float y_axisx
property float y_axisy
property float y_axisz
property float z_axisx
property float z_axisy
property float z_axisz
property float focal
property float scalex
property float scaley
property float centerx
property float centery
property int viewportx
property int viewporty
property float k1
property float k2
end_header
0.11969627 0.5164988 0.68802536
0.18153051 0.40462181 0.66780496
0.081127867 0.51159519 0.68204474
0.17973952 0.45175934 0.68919683
0.092634484 0.47114041 0.7011494
0.16391644 0.49417025 0.68176115
0.11108606 0.53226972 0.67962736
0.1059835 0.4343358 0.68185055
0.095852688 0.50214541 0.68546104
0.097789958 0.48383778 0.68076617
0.07763119 0.50877851 0.68330991
0.20375405 0.50532103 0.66234189
0.21466951 0.49803698 0.64980274
0.17527133 0.47828788 0.68733966
0.13678998 0.45455688 0.7210741
0.19750282 0.49409097 0.67409253
0.11833388 0.52693897 0.68869466
0.1076408 0.47107786 0.66843355
0.066675991 0.51621729 0.66252381
0.09665902 0.47307631 0.7185744
0.19336477 0.49110156 0.67734736
0.18652795 0.5032649 0.61890769
0.20183554 0.50613904 0.62921631
0.18971282 0.4877212 0.68120515
0.12356435 0.48565504 0.72067279
0.13125043 0.4652285 0.72489858
0.15334338 0.500085 0.66870767
0.16613895 0.51074505 0.66311735
0.12337785 0.48960531 0.71891385
0.20352469 0.50832045 0.65273851
0.225878 0.43456823 0.64027411
0.20919445 0.47560877 0.67561829
0.1799501 0.48205096 0.68601781
0.21228966 0.50109726 0.64446884
0.2092499 0.503326 0.63925105
0.10192391 0.45868218 0.67535031
0.093293458 0.47949183 0.68576735
0.16265744 0.49858248 0.62611181
0.17779249 0.51012522 0.6699971
0.17265995 0.50776005 0.67219514
0.16478077 0.50638163 0.6697728
0.14143568 0.48275298 0.68652225
0.15973806 0.48874563 0.68300402
0.10612972 0.49824214 0.6999743
0.13402578 0.48409718 0.69177389
0.16893025 0.40157679 0.67605871
0.161538 0.50750607 0.66498733
0.10126842 0.46711901 0.71601617
0.14948297 0.50269377 0.65002269
0.17617981 0.40047154 0.67097545
0.062087789 0.53212893 0.65558392
0.1468091 0.48479754 0.68388337
0.10637566 0.4790701 0.72441751
0.10882255 0.43257496 0.68773037
0.13390763 0.48990458 0.66436934
0.10196456 0.44813934 0.68056566
0.11942171 0.50704497 0.69276941
0.19185506 0.50915796 0.6672281
0.16021942 0.47966927 0.68718052
0.1644623 0.48268232 0.68697029
0.16845135 0.48079616 0.68776065
0.1317721 0.45178241 0.72325611
0.21903564 0.42809278 0.65034282
0.11250646 0.50726867 0.6959694
0.11667921 0.51203066 0.69354594
0.11783902 0.49856046 0.70602739
0.1989567 0.51064116 0.65486044
0.19520333 0.50829357 0.62869531
0.092244297 0.47743231 0.68916118
0.13004526 0.45667788 0.72661638
0.18882664 0.50847232 0.6251021
0.21285744 0.49518451 0.62732083
0.10699399 0.44899851 0.65534866
0.1043485 0.44538805 0.65905887
0.11042058 0.50166601 0.69807363
0.10340231 0.4985854 0.69319838
0.12901381 0.43547654 0.70139682
0.091228217 0.47249177 0.69546747
0.17434801 0.40506664 0.67160064
0.17641908 0.41030738 0.668643
0.090769045 0.5070011 0.68276149
0.19062258 0.40621772 0.67064309
0.19247213 0.41436702 0.67148477
0.19542597 0.40883458 0.67125905
0.19677669 0.41733703 0.67037618
0.20222728 0.41983241 0.66582686
0.20552237 0.4211942 0.66261411
0.20907731 0.42540485 0.65876859
0.21838765 0.43339863 0.65392101
0.2018403 0.49579483 0.6708535
0.15960693 0.49752447 0.67734921
0.12526229 0.49169251 0.69995242
0.067611039 0.52744967 0.65708727
0.11085843 0.5303365 0.67843187
0.13575935 0.47831327 0.70392609
0.13125561 0.46997994 0.71882427
0.10557948 0.44937429 0.7088967
0.2092279 0.49618804 0.62263519
0.18497285 0.48501629 0.68393552
0.10959227 0.51636976 0.680323
0.11203795 0.5189777 0.67591387
0.15848774 0.42549524 0.68233794
0.12825122 0.46549791 0.63652521
0.12828016 0.47255176 0.72402143
0.065434307 0.51878583 0.65757465
0.17759544 0.49651951 0.68203163
0.13046104 0.48837 0.67341197
0.1160631 0.48081404 0.72599405
0.090109989 0.50364184 0.68935889
0.16374236 0.39916056 0.67735356
0.14602757 0.4961929 0.66527772
0.20480677 0.42502463 0.66261554
0.21371891 0.42944264 0.65647906
0.1114886 0.47846955 0.72642827
0.12296578 0.45951685 0.7302497
0.15755661 0.49580869 0.62782294
0.1057301 0.44096881 0.65661561
0.10881485 0.44423249 0.65180528
0.092547625 0.5043081 0.68663448
0.18364879 0.45231557 0.69073683
0.19425198 0.47150004 0.68498003
0.22735935 0.47552267 0.63303256
0.16611525 0.40564409 0.67387313
0.17086382 0.40777838 0.67168254
0.095598921 0.49942279 0.69247723
0.095008686 0.47842288 0.71786731
0.11079401 0.49170417 0.71615118
0.10630219 0.48799258 0.71844906
0.19027102 0.4687103 0.68693984
0.18502347 0.51345479 0.63473547
0.10926979 0.44739416 0.71413738
0.18514286 0.41191506 0.6699543
0.15697888 0.47192746 0.69029599
0.14269708 0.46329242 0.69794512
0.20686996 0.49177632 0.61629558
0.15620494 0.49218225 0.67949182
0.22789466 0.44678217 0.63022107
0.11202592 0.51086432 0.67867464
0.11391603 0.53709668 0.6720081
0.18133992 0.49249339 0.60948527
0.13377222 0.46835628 0.63190758
0.090562038 0.47995046 0.71143639
0.21142399 0.50180757 0.65220618
0.18023612 0.50774056 0.67346942
0.13536394 0.4724924 0.62958354
0.1895739 0.41614607 0.67096078
0.19943152 0.42294645 0.66590989
0.20945339 0.42805177 0.66155899
0.21520384 0.43142846 0.65996879
0.21775183 0.4331156 0.65765136
0.12561093 0.49124032 0.71414757
0.12768403 0.4697209 0.72700804
0.10290202 0.44172063 0.66556174
0.23204911 0.45075992 0.62992501
0.11722072 0.54479074 0.68018597
0.11881309 0.54614258 0.67923874
0.17647199 0.50515199 0.67599231
0.10248107 0.49691629 0.68640518
0.16067138 0.40213287 0.67546445
0.18008177 0.41369042 0.66786122
0.19587629 0.42118487 0.66810191
0.20510213 0.42883939 0.66793698
0.21019702 0.43069723 0.66628313
0.21461262 0.43377864 0.6642229
0.21863396 0.43713254 0.66044807
0.20664661 0.50085264 0.62559277
0.10415554 0.44757921 0.69470459
0.10373589 0.47157624 0.72358739
0.21627514 0.49639469 0.64006251
0.21139434 0.501073 0.6372236
0.099599838 0.49897349 0.6895771
0.16439384 0.40828845 0.67160279
0.17881966 0.41938961 0.66666031
0.13898516 0.48613212 0.68220413
0.18637995 0.47086245 0.68445718
0.13508999 0.48571929 0.68243712
0.092015594 0.50066876 0.69217348
0.18774199 0.41981599 0.66840619
0.19195664 0.42387819 0.66775817
0.19686985 0.42424724 0.66718394
0.19912016 0.42665395 0.66929287
0.099401303 0.49825248 0.68198937
0.093512557 0.4598487 0.69450808
0.13410424 0.47244516 0.62425327
0.062013283 0.52305245 0.65958333
0.10751379 0.49314842 0.68224794
0.099213675 0.45451605 0.70820689
0.18972886 0.51215249 0.63323218
0.1313906 0.4847351 0.70052844
0.1747452 0.49044451 0.68514663
0.089145109 0.50716758 0.67029822
0.1108103 0.44288039 0.69611752
0.10449371 0.46653473 0.72146022
0.15163362 0.48725939 0.68093795
0.22850287 0.45316169 0.63580078
0.23277953 0.45600283 0.6327073
0.235928 0.45958513 0.63117534
0.14905536 0.47247225 0.69243503
0.080552518 0.50893366 0.66035539
0.21259436 0.48970184 0.66582847
0.11394347 0.54160345 0.67544186
0.1321153 0.43443322 0.70157987
0.1814902 0.5116607 0.66700482
0.18134391 0.46729183 0.68582177
0.16351584 0.50081867 0.67643517
0.16197734 0.41152382 0.66957194
0.16819888 0.4135645 0.67152739
0.17284626 0.41612202 0.67080885
0.18367779 0.42287037 0.66529727
0.20403703 0.50031674 0.62199175
0.12508816 0.44536212 0.7178064
0.096184477 0.45300481 0.69438624
0.17813143 0.49296281 0.68385351
0.17882924 0.5135957 0.6618073
0.13182458 0.53133905 0.66822517
0.090617716 0.4893834 0.69238341
0.092574336 0.46370205 0.68637443
0.1875314 0.50820953 0.67085409
0.14450809 0.48035142 0.6889804
0.14701876 0.47741705 0.69070113
0.15241799 0.47976688 0.68768686
0.16704327 0.49006611 0.68474305
0.13867708 0.46280396 0.70506454
0.08624351 0.51205558 0.67296982
0.11597586 0.47033861 0.72933048
0.21485403 0.49431816 0.6576609
0.20611066 0.50341034 0.6614936
0.15414141 0.47619209 0.68943512
0.12248136 0.49399793 0.71510476
0.1652787 0.41412401 0.67143184
0.106539 0.50292897 0.69283974
0.1904012 0.42873168 0.67074096
0.12382589 0.45426852 0.72731477
0.14690128 0.46585411 0.69564712
0.12049235 0.55273426 0.65928042
0.18998732 0.49629816 0.61122227
0.1071021 0.4381862 0.69031882
0.19292484 0.51205236 0.6599077
0.10423084 0.4399035 0.68471062
0.11495495 0.49419618 0.71400458
0.093290865 0.49230668 0.69870257
0.12101325 0.49662223 0.71045899
0.14779076 0.49020097 0.67662513
0.10303098 0.49003676 0.7141403
0.066762939 0.51273137 0.66989446
0.10284762 0.44936547 0.66507685
0.19769515 0.43129346 0.67379397
0.20301849 0.43225086 0.67241317
0.20863047 0.4355396 0.67056936
0.21374181 0.43799821 0.667193
0.21744725 0.44200835 0.66470051
0.20160578 0.49140447 0.61215287
0.23013672 0.46118203 0.63538235
0.12320565 0.47024757 0.72940469
0.13191417 0.48807687 0.6569289
0.18747506 0.45308694 0.69101703
0.086949237 0.50036407 0.69083697
0.11265729 0.49632946 0.7095378
0.11011953 0.48538786 0.72216028
0.16654047 0.4992204 0.67945683
0.18165413 0.51083422 0.62948632
0.1672195 0.41982535 0.67477071
0.1720482 0.42061302 0.67354238
0.17617576 0.42449301 0.6699779
0.18111719 0.42799392 0.66702902
0.15549016 0.48657167 0.6827783
0.098526038 0.48588789 0.71570432
0.154333 0.50450301 0.66185695
0.18464029 0.51409477 0.65862262
0.1104887 0.52919912 0.6835199
0.16102777 0.47510776 0.68864173
0.16338751 0.48717129 0.68522018
0.067655057 0.51411861 0.65506637
0.12081256 0.49855384 0.69707757
0.16916652 0.48650533 0.68640113
0.23532397 0.46529606 0.63245356
0.12647536 0.41723436 0.67173111
0.12400467 0.54753363 0.65710449
0.11745885 0.54920655 0.67591345
0.13333668 0.4289977 0.69919288
0.14753473 0.41538018 0.65264022
0.15167928 0.49323556 0.67602175
0.10236825 0.4840546 0.71984166
0.14290904 0.49552584 0.65975493
0.13874848 0.49205172 0.661228
0.11288276 0.53806752 0.67817485
0.20542045 0.43502209 0.6737448
0.2104103 0.43838555 0.67150784
0.21351613 0.44014859 0.6699543
0.14090553 0.46740976 0.69865602
0.16933852 0.50960696 0.66783583
0.21356119 0.49824482 0.63559729
0.10093322 0.44983616 0.68967444
0.091981277 0.49074191 0.67773247
0.12391341 0.43283457 0.69908994
0.15614182 0.48311692 0.68515056
0.12471148 0.49506649 0.70650941
0.1022757 0.44679871 0.66801363
0.18913932 0.49856704 0.67775363
0.18635675 0.49285516 0.6813429
0.10108628 0.45012921 0.70457411
0.15164199 0.46823522 0.69348413
0.09550631 0.48743168 0.71080744
0.084804028 0.50786817 0.66471785
0.12011031 0.48480082 0.66462725
0.13031012 0.52609956 0.67458308
0.069584489 0.52418423 0.66242313
0.099830285 0.49147487 0.70924777
0.088745132 0.50033677 0.66806018
0.14745048 0.41727629 0.66552663
0.1492693 0.48190147 0.68674213
0.092541069 0.48749962 0.70609242
0.13514647 0.48145545 0.70008326
0.17062385 0.51334667 0.66023594
0.19668485 0.43545994 0.67727417
0.20303139 0.43875933 0.67675984
0.20794365 0.44044086 0.67467028
0.21272856 0.44368953 0.67248404
0.21537165 0.44681242 0.67025232
0.17277281 0.48382559 0.68689489
0.1819371 0.49002385 0.68395746
0.1773338 0.48715115 0.6856364
0.15173107 0.41792399 0.66232246
0.11112241 0.43735054 0.69494361
0.13123241 0.47341913 0.63728613
0.2306903 0.46530077 0.63404882
0.23845348 0.46837759 0.62823904
0.19985062 0.49641228 0.61420786
0.14990333 0.41826174 0.67154682
0.1546084 0.4183394 0.66793543
0.12846509 0.48817396 0.68929642
0.19912922 0.47388226 0.68221611
0.19323334 0.50106907 0.67410678
0.16569832 0.42386514 0.67729503
0.17153223 0.42636451 0.67690015
0.1755735 0.42970327 0.67291188
0.18017691 0.43282893 0.67054182
0.099028505 0.47767216 0.72086763
0.10034451 0.49201435 0.67975402
0.1839581 0.49610639 0.68061018
0.11755005 0.46646458 0.72998315
0.17460321 0.49968216 0.68039757
0.19144145 0.51012015 0.62930578
0.20078707 0.49956489 0.6697697
0.11285757 0.52125335 0.67441398
0.15724777 0.4214409 0.67606544
0.18945028 0.51389772 0.65489477
0.12867028 0.48701966 0.68165696
0.090639882 0.49513862 0.69422317
0.078556128 0.50220895 0.67413872
0.10157528 0.445384 0.67322195
0.061282083 0.51948243 0.66834605
0.19065669 0.49490619 0.67816079
0.11548015 0.55095273 0.67100716
0.14149387 0.47300327 0.69343954
0.11633775 0.48143446 0.66640127
0.17425035 0.50353992 0.6235289
0.096045107 0.4562695 0.70277816
0.22791348 0.46860319 0.63530624
0.23179449 0.47105539 0.6327787
0.23665749 0.47320449 0.62989879
0.10933863 0.52017754 0.68871236
0.10424941 0.43684676 0.67714465
0.074675113 0.50468993 0.67832929
0.12770294 0.48856676 0.66749996
0.17962134 0.441607 0.68066639
0.11108815 0.46566591 0.6548183
0.10283781 0.4594287 0.67158979
0.11195325 0.44782591 0.64826673
0.13326758 0.46418291 0.63002503
0.21104909 0.44873485 0.67458141
0.21726696 0.44732243 0.66717565
0.20462076 0.50343436 0.62761903
0.10739505 0.49306786 0.71242964
0.15326875 0.42264113 0.68441063
0.10481164 0.46278214 0.66817546
0.1157674 0.45072865 0.64390665
0.12616652 0.45730948 0.63742262
0.16152489 0.42398536 0.67799252
0.17876768 0.50219548 0.67826742
0.19653313 0.50788271 0.66641116
0.14370459 0.46971956 0.69465083
0.094670936 0.47228211 0.71411288
0.098464034 0.47176811 0.71901286
0.12160812 0.49555761 0.68954605
0.083141625 0.49740937 0.68544394
0.1040285 0.44509795 0.68679172
0.092586204 0.47160545 0.68682688
0.12586796 0.47561201 0.64462936
0.096743204 0.46106979 0.68082064
0.14432365 0.47725236 0.6113984
0.14610007 0.47998142 0.6123665
0.11112314 0.46979237 0.65777326
0.16739891 0.5005061 0.62449086
0.15231371 0.492443 0.62854451
0.16858947 0.43101972 0.68080354
0.17384113 0.43494353 0.67710096
0.17901774 0.43719563 0.67431593
0.16004471 0.49471402 0.67986763
0.1524041 0.49605167 0.67361289
0.19610891 0.43972608 0.68019122
0.20110236 0.4431673 0.67996407
0.2066091 0.44629461 0.67866147
0.21437065 0.45253384 0.67282641
0.21599106 0.45188147 0.67047679
0.12550052 0.51448983 0.67699552
0.22026339 0.4903686 0.64172012
0.1109811 0.4787201 0.67053699
0.13868491 0.48534074 0.63632369
0.13022292 0.46065548 0.63432842
0.099968433 0.45651197 0.6794697
0.11711781 0.51427925 0.67454034
0.15134504 0.48188651 0.61046225
0.16370335 0.49396923 0.62165833
0.16362733 0.42774087 0.68150085
0.11094503 0.48231936 0.7244668
0.19527724 0.49759001 0.67425853
0.10270078 0.4547306 0.66851848
0.10917018 0.4649452 0.72617686
0.099467762 0.4786092 0.67723346
0.22639847 0.47376215 0.63749504
0.23267736 0.47744235 0.63036734
0.1103166 0.45211098 0.72198778
0.18409464 0.50956744 0.67044878
0.10105168 0.47363162 0.67456931
0.10341334 0.46791855 0.67197955
0.10441897 0.45729232 0.66475463
0.068028644 0.51740688 0.64848953
0.22559604 0.47845063 0.63040328
0.11828878 0.50032127 0.69974685
0.19621807 0.4424032 0.68194538
0.1249916 0.48391461 0.65575367
0.13270459 0.46789336 0.62210172
0.12847945 0.54224098 0.65919662
0.1086982 0.52149087 0.6833691
0.10754842 0.51244444 0.68698835
0.058320254 0.52969885 0.65861326
0.075479344 0.51960832 0.6655407
0.15730651 0.50376922 0.66714567
0.15569198 0.48291707 0.60937494
0.11733901 0.53213465 0.66862941
0.1085163 0.50631064 0.68456197
0.095629141 0.47579613 0.68102598
0.1329152 0.41728485 0.68195009
0.14772764 0.49022341 0.63060486
0.11133304 0.50157559 0.68255234
0.11794931 0.55283976 0.66877824
0.19009343 0.43846729 0.68081951
0.12581845 0.45123953 0.72392893
0.096237607 0.49958777 0.67700094
0.11665975 0.44367784 0.70072776
0.13007808 0.53700215 0.65979666
0.19084539 0.47432211 0.68194383
0.14701387 0.41802078 0.67927301
0.12098079 0.45363203 0.64011526
0.15806299 0.42778149 0.68662667
0.16287482 0.43226159 0.68511373
0.18754123 0.44202262 0.68467879
0.19483039 0.44512108 0.68473679
0.20019995 0.44806325 0.68345135
0.20534444 0.45086557 0.68184972
0.20930608 0.45463035 0.67790192
0.21291639 0.45713225 0.67510039
0.12839681 0.51957798 0.67564654
0.066853896 0.52322763 0.64985669
0.091616787 0.47743946 0.70380872
0.074879318 0.51686186 0.65635663
0.19584824 0.51087719 0.63540298
0.092245623 0.48744428 0.68430036
0.11621234 0.54652745 0.67800802
0.12308577 0.4180997 0.67454046
0.1479 0.42423761 0.69112349
0.15331575 0.42600253 0.6897853
0.1583665 0.43055034 0.6891436
0.16154277 0.4321087 0.68737352
0.16666208 0.43598905 0.68452352
0.16860449 0.43543392 0.6826064
0.17241749 0.43943548 0.67983127
0.071620077 0.51798588 0.65149063
0.19475268 0.49612939 0.61189932
0.15888748 0.39364773 0.67445362
0.11508007 0.47930795 0.66414088
0.071409509 0.50982958 0.66910797
0.12296648 0.4920536 0.68664569
0.10851741 0.51664203 0.68972933
0.069716111 0.51180553 0.66093135
0.1953683 0.5099659 0.66357386
0.19070886 0.44461077 0.68668205
0.13666323 0.49107772 0.65510219
0.091861866 0.50608838 0.67455018
0.11871389 0.44609869 0.70623177
0.069652885 0.50945079 0.65324271
0.079215765 0.51550531 0.66229206
0.10989153 0.44753194 0.70516741
0.15412477 0.42911875 0.6919595
0.17506039 0.44258073 0.6797117
0.14326628 0.43174958 0.69971246
0.095082678 0.46332222 0.70539272
0.10780881 0.44715157 0.69963753
0.12597649 0.49058482 0.69150668
0.1122574 0.53388602 0.67555344
0.092708401 0.48384154 0.71202546
0.12694533 0.43901357 0.70228601
0.098190963 0.45127106 0.70003796
0.11235554 0.44503698 0.69842738
0.18833447 0.44709426 0.68940538
0.19362448 0.4498848 0.68791783
0.1985274 0.45274583 0.68593174
0.20309244 0.45570859 0.6834026
0.207903 0.4586373 0.68009961
0.2106346 0.46225551 0.67785716
0.21219042 0.46200281 0.67554915
0.12541619 0.4873279 0.66199923
0.093895942 0.45860851 0.69729853
0.13783786 0.48094136 0.68862784
0.10141614 0.450133 0.67560005
0.14599563 0.42684376 0.69530404
0.14771852 0.43009853 0.69690335
0.15230905 0.43184903 0.69429922
0.15778169 0.43455163 0.69218099
0.16141261 0.43782663 0.68979299
0.1644185 0.43874386 0.68604159
0.16579646 0.44119686 0.68672323
0.16922134 0.44269747 0.68525434
0.17191698 0.44494769 0.68242669
0.095843084 0.48287162 0.71649051
0.16470221 0.47852945 0.68782926
0.13039823 0.44723549 0.71566743
0.08909753 0.49122852 0.68782538
0.072780654 0.5071668 0.67279637
0.17687492 0.44616824 0.68456376
0.10270584 0.44257212 0.67958754
0.21800888 0.46915928 0.66834813
0.091453508 0.48246428 0.69131553
0.16297743 0.5112561 0.64332384
0.21436767 0.46567363 0.67292953
0.083589815 0.51313734 0.66733295
0.10600197 0.48298892 0.72248995
0.15851635 0.5081628 0.65972686
0.19099252 0.4551807 0.6902082
0.19639631 0.45769253 0.68785113
0.20093119 0.4608008 0.68543279
0.20516826 0.46424815 0.68281847
0.2092956 0.46603107 0.679654
0.14526376 0.48257121 0.61669594
0.20161557 0.50869727 0.65849328
0.097194925 0.49228889 0.70448393
0.17970701 0.51293635 0.63446724
0.14615718 0.43352094 0.69975537
0.15068229 0.43625188 0.69771528
0.1554836 0.43914178 0.6955592
0.16012573 0.44233522 0.69230336
0.16432978 0.44514912 0.68874186
0.17007357 0.4493396 0.68672252
0.17572954 0.45075321 0.68665546
0.21224618 0.47079757 0.67430109
0.21552198 0.4731425 0.66961277
0.14157692 0.42660534 0.69633776
0.13328075 0.46756744 0.6270476
0.11932457 0.54260778 0.67728841
0.12308371 0.43817788 0.70114034
0.097927034 0.46081346 0.70958054
0.080695279 0.49938163 0.68067354
0.1755951 0.51480114 0.65704763
0.20948985 0.46938515 0.67874771
0.071895868 0.50940007 0.66639191
0.13033566 0.48162061 0.64531469
0.12521428 0.49416864 0.70895439
0.13894033 0.43085116 0.69986111
0.16193318 0.44584364 0.68992484
0.21442038 0.47564214 0.6700232
0.18276933 0.51443952 0.63852549
0.1932282 0.51287615 0.65439075
0.1941891 0.46229619 0.68918884
0.15284866 0.5021224 0.64074028
0.11328697 0.44555363 0.71017516
0.1374578 0.43562216 0.70218843
0.14453241 0.43841165 0.70119506
0.14900342 0.44173187 0.69992405
0.1543258 0.44482094 0.69672608
0.15796988 0.44724423 0.69416821
0.16119832 0.45033148 0.69150257
0.16490628 0.45116955 0.69043857
0.1685057 0.45421672 0.68995309
0.17433998 0.45722225 0.68768764
0.18989678 0.45981097 0.69072503
0.19862992 0.46518233 0.68681771
0.20192669 0.46769381 0.68451095
0.20215358 0.47070009 0.68315697
0.20584153 0.47296223 0.67932099
0.21323195 0.47971091 0.67052531
0.065787181 0.52319908 0.66557348
0.11956728 0.52947789 0.67923343
0.10957422 0.5111956 0.69333851
0.1123476 0.43159187 0.69234693
0.065314904 0.52852309 0.65164179
0.12134005 0.47230697 0.64670694
0.14134684 0.43894219 0.70161718
0.14313915 0.48796266 0.67923248
0.18611006 0.46276236 0.68962437
0.19139346 0.46496299 0.68886846
0.19664715 0.46843451 0.68653154
0.20893136 0.47863424 0.67398787
0.10674554 0.44304088 0.69175726
0.14221588 0.42223731 0.69131792
0.1914992 0.50115365 0.6176548
0.21490701 0.4962914 0.65402842
0.12296726 0.49662173 0.70241487
0.10592037 0.46020532 0.71905178
0.084059209 0.49578109 0.66957706
0.12413374 0.46227577 0.63963377
0.13345626 0.48729497 0.67863923
0.1348051 0.4416233 0.70343614
0.14033699 0.44386354 0.70269918
0.14661756 0.44490489 0.70039934
0.15144159 0.44778818 0.69827288
0.1560909 0.45072961 0.69588131
0.15920331 0.45608452 0.69305128
0.16745917 0.45844635 0.69070613
0.17232445 0.462358 0.68896085
0.17626406 0.46467751 0.68759686
0.20156601 0.47634658 0.6792565
0.20091005 0.47982121 0.67836475
0.2062906 0.48190007 0.67563605
0.2095674 0.4850378 0.67199832
0.10377552 0.48143604 0.67534751
0.077595443 0.49845359 0.667826
0.10273589 0.45438808 0.71221793
0.064712942 0.52530372 0.64820904
0.078079343 0.50421047 0.683878
0.1515747 0.41924608 0.6771698
0.20025407 0.50971967 0.6408208
0.11960681 0.4593266 0.64232445
0.14520454 0.44798905 0.70142454
0.15041831 0.45208395 0.69818985
0.15452242 0.45376191 0.69635326
0.16305426 0.46017626 0.6914435
0.19584244 0.47678024 0.68025267
0.086346984 0.49344054 0.68276137
0.1017647 0.45410034 0.67329884
0.11746012 0.53471917 0.66763985
0.13577604 0.45056054 0.7176891
0.13092685 0.43977863 0.70303786
0.094579421 0.46888629 0.70646566
0.1685679 0.46780449 0.68956149
0.1742584 0.46882954 0.68823576
0.17898966 0.47298121 0.68629771
0.18338245 0.47609627 0.68481588
0.18842791 0.47871333 0.68255711
0.19219711 0.48129472 0.6796239
0.19838326 0.48390704 0.67731935
0.20298131 0.48640013 0.67545193
0.12555049 0.44457674 0.70453519
0.13194044 0.44769284 0.70491832
0.13689536 0.44989619 0.70333451
0.14337274 0.45214656 0.7014029
0.1470017 0.45565149 0.6990664
0.15283611 0.45826784 0.69666183
0.15646397 0.46244502 0.69340193
0.16230032 0.46530306 0.69094437
0.20573026 0.48874912 0.67284256
0.11939047 0.49145058 0.68144667
0.20848486 0.49431068 0.66658616
0.20494625 0.49688688 0.61855519
0.13816978 0.45916927 0.70143497
0.17195322 0.47183615 0.68866956
0.17618173 0.47417051 0.68722534
0.19251212 0.48446614 0.67895842
0.19510545 0.48689783 0.67679191
0.2003928 0.48961657 0.67427516
0.20567663 0.49128619 0.67077821
0.11946566 0.52629936 0.68293875
0.10934772 0.4841938 0.6744296
0.12239499 0.46785861 0.64317983
0.11799353 0.55048966 0.66173434
0.16904438 0.5031296 0.62606084
0.10305426 0.4872824 0.67867684
0.11331698 0.52921391 0.67283112
0.10585582 0.47654033 0.67220378
0.11626026 0.52421618 0.67116106
0.13322675 0.45149887 0.70637351
0.13577887 0.45515278 0.70523721
0.13888575 0.45780867 0.7020219
0.14434651 0.45956263 0.69880944
0.14948496 0.46227956 0.69676006
0.15357356 0.46550101 0.69390851
0.16056712 0.46986654 0.69035202
0.1826636 0.48083022 0.68543524
0.18500745 0.48228663 0.68427122
0.20491824 0.49783865 0.66797787
0.17890495 0.50091708 0.61750615
0.13528791 0.45102251 0.71287072
0.11612905 0.50437695 0.67945617
0.10980152 0.45216238 0.65203887
0.10266752 0.46245924 0.71556288
0.13174124 0.46887338 0.63445282
0.11438343 0.45605308 0.6462816
0.20074892 0.41235822 0.66826046
0.20078672 0.40889764 0.66480887
0.096976399 0.47087884 0.67823017
0.12403408 0.53470981 0.66910034
0.20075814 0.50467938 0.66601908
0.12551683 0.53917885 0.66059017
0.10662726 0.49836218 0.68660361
0.22291481 0.43092403 0.647484
0.21089379 0.49837285 0.65936142
0.10751659 0.46760565 0.66533428
0.17261876 0.3948487 0.672158
0.20384234 0.4147945 0.66454595
0.20739272 0.41726726 0.66062057
0.13802087 0.45858356 0.71272033
0.13047384 0.4806934 0.70848846
0.22543648 0.43391719 0.64476484
0.1394849 0.47328371 0.70064837
0.11964327 0.54793882 0.67088455
0.084571153 0.50243288 0.66394597
0.21839677 0.48688412 0.66000545
0.1216746 0.50209045 0.68946511
0.21531324 0.42160565 0.65089273
0.12771051 0.44560686 0.71234298
0.13872698 0.47112742 0.70516181
0.1809209 0.40153906 0.66683722
0.15015161 0.48534542 0.61508065
0.12084007 0.54914093 0.66669118
0.22552867 0.43981907 0.63381094
0.10785732 0.46592617 0.66207206
0.20499597 0.50127941 0.66522753
0.12776962 0.4849723 0.7118333
0.12787758 0.5378775 0.66556126
0.12191118 0.53018379 0.67584091
0.22152373 0.43664384 0.64983261
0.22429727 0.43755624 0.64654893
0.22490083 0.44023508 0.64477605
0.22639306 0.44319335 0.64076334
0.21844836 0.49175188 0.65226316
0.22697374 0.44517142 0.63675183
0.12231693 0.54422832 0.66370672
0.13859653 0.45717448 0.71733415
0.11163165 0.45226064 0.64950645
0.12664494 0.48065764 0.71871954
0.12329648 0.50698256 0.68288851
0.11959677 0.53560346 0.67737311
0.12149482 0.54004604 0.67120272
0.13757676 0.46801218 0.7092303
0.13154066 0.46762404 0.72253615
0.10570625 0.45891377 0.66266119
0.12003502 0.51135498 0.68896592
0.13610145 0.48147595 0.69599193
0.19643611 0.4906885 0.60898328
0.22725573 0.44803315 0.63449216
0.1283742 0.47533059 0.72044277
0.10815825 0.46131244 0.65789801
0.23370105 0.45145246 0.62630761
0.11953082 0.42077047 0.67759281
0.13705322 0.46146587 0.71993166
0.12243009 0.50972688 0.68856645
0.12353805 0.51199305 0.68646967
0.13997719 0.46394274 0.70111376
0.13127866 0.47620648 0.71141624
0.23543532 0.45476994 0.62328142
0.23668921 0.45980081 0.61662298
0.12601376 0.54566526 0.66133934
0.11690021 0.55420029 0.66429222
0.20953839 0.49730676 0.66348398
0.13595198 0.46492541 0.71614438
0.23733976 0.45897341 0.62705791
0.23779795 0.45944321 0.6225006
0.2387459 0.46339625 0.62385827
0.12383226 0.54212469 0.66690451
0.20996764 0.50183046 0.6561603
0.12844074 0.48761237 0.70785123
0.12864582 0.47602248 0.71542716
0.12947786 0.5284127 0.67036963
0.11963632 0.54466522 0.67357856
0.22096403 0.44030976 0.65506864
0.13525066 0.46863815 0.71251142
0.23857519 0.46342212 0.61806726
0.16205472 0.50827622 0.63566619
0.12389412 0.52583712 0.67373407
0.11979811 0.52039105 0.68399674
0.12605315 0.51511252 0.68207437
0.12848499 0.52119946 0.68033653
0.12709695 0.52450788 0.67758429
0.22406565 0.44508386 0.65148485
0.22450587 0.44577095 0.6468333
0.22589833 0.44893917 0.6447491
0.22779953 0.45176804 0.6408878
0.20901829 0.49016947 0.66932368
0.23926038 0.46787041 0.61756998
0.13665777 0.45393991 0.71078062
0.12245321 0.52195936 0.68096191
0.16793576 0.49165478 0.61320168
0.1401116 0.4664191 0.70249057
0.1339851 0.47675627 0.70834827
0.11745562 0.49593449 0.68323624
0.12182677 0.50280613 0.68404138
0.11902944 0.53682321 0.68360686
0.19050446 0.50473803 0.62034029
0.22058417 0.44159156 0.65876794
0.23974603 0.46752059 0.62266064
0.22686413 0.45389667 0.64647222
0.23913553 0.47329938 0.61979139
0.12953255 0.41634563 0.66909176
0.057408765 0.52627122 0.66466677
0.22024401 0.4458642 0.66039342
0.22402862 0.44969812 0.6550566
0.22552896 0.45314658 0.65093678
0.22829856 0.45722353 0.64394587
0.22886662 0.45885956 0.63947397
0.21819083 0.49021122 0.65667909
0.11868589 0.4469223 0.7230835
0.23933302 0.47159967 0.62394708
0.21668053 0.48623943 0.66336143
0.12438475 0.53314352 0.67204517
0.13160637 0.4824121 0.70527822
0.12033908 0.50035155 0.69411159
0.12817906 0.47854364 0.71229255
0.12628882 0.51894975 0.68296826
0.13122465 0.47208685 0.71496654
0.21987598 0.48807138 0.65530318
0.076012328 0.50385928 0.66837531
0.22830509 0.46610743 0.63929927
0.092678085 0.4992651 0.67243594
0.21953765 0.4513202 0.66370511
0.22215162 0.45485973 0.65798539
0.22422206 0.45838836 0.65343696
0.22580071 0.46083742 0.65011263
0.22731604 0.46193531 0.64710635
0.2282691 0.46505812 0.6435445
0.23728752 0.47709417 0.62661874
0.23746864 0.47883996 0.62193435
0.13008614 0.53957713 0.66289765
0.12694179 0.48627159 0.71663082
0.22100799 0.45522368 0.66112763
0.12849975 0.51967955 0.67995572
0.21235478 0.48670819 0.66817403
0.12520084 0.51163459 0.67949671
0.21798931 0.45552793 0.66772991
0.22065589 0.4592571 0.66331482
0.22170429 0.46052337 0.65987688
0.22244343 0.46309733 0.65612358
0.22525607 0.46723533 0.65037233
0.22653045 0.46989959 0.64587271
0.22673665 0.47213757 0.64138883
0.23427826 0.48277789 0.62350166
0.14454898 0.41682279 0.67444909
0.10062867 0.44855902 0.69741786
0.19252846 0.49015912 0.60763717
0.094789773 0.45908734 0.68428481
0.11923417 0.53490067 0.6823976
0.12843037 0.53386587 0.66899401
0.13712761 0.46069947 0.70829821
0.22363691 0.46692923 0.65351576
0.090695061 0.48574185 0.6990636
0.058330357 0.52247322 0.66443515
0.14131735 0.41563472 0.66923237
0.13442178 0.4844813 0.64267468
0.12666854 0.4204607 0.68724537
0.17480099 0.5128094 0.63567543
0.21697044 0.45997569 0.67055702
0.21999276 0.46377325 0.66584212
0.22200836 0.46767694 0.65976799
0.22446448 0.47206181 0.6526463
0.22525968 0.47463909 0.64807594
0.22519317 0.47701198 0.64402038
0.22473083 0.47910181 0.64091367
0.2243448 0.48041815 0.63691121
0.11999149 0.4812161 0.65733004
0.22293796 0.48277798 0.63226604
0.12906721 0.48756403 0.6959886
0.15158352 0.49716842 0.63294637
0.12105747 0.49755862 0.68775076
0.2234512 0.47144532 0.65649414
0.1196281 0.49937961 0.68340981
0.14379087 0.48712474 0.63273811
0.22121996 0.48352653 0.62629396
0.12765662 0.48140252 0.71357507
0.2204285 0.47310308 0.66226387
0.22164735 0.47565556 0.65856123
0.22281025 0.47788686 0.65501332
0.22313589 0.47988394 0.65116584
0.090880401 0.48635608 0.69453108
0.12319744 0.41853848 0.66790318
0.22338587 0.48266768 0.64643657
0.2231271 0.48384216 0.64402902
0.22260526 0.48546717 0.64004803
0.22090441 0.48753911 0.63475269
0.12558609 0.44785148 0.72165126
0.10259964 0.43968633 0.6711421
0.12120511 0.53641629 0.66476095
0.13145022 0.41622537 0.67338562
0.21813032 0.47783032 0.66493267
0.21982084 0.48046219 0.66103816
0.22120008 0.48283765 0.6574946
0.22138767 0.48483425 0.65330875
0.22133847 0.48696902 0.64901936
0.22103848 0.48843756 0.64519697
0.15623438 0.50057614 0.6313467
0.088524371 0.49321052 0.67365032
0.094895706 0.48149329 0.68355787
0.13480456 0.48711616 0.64682943
0.098857909 0.45271701 0.68638319
0.12048671 0.54587138 0.65963954
0.12873791 0.52458858 0.66986996
0.13086632 0.5367099 0.66220433
0.12591237 0.54372764 0.65693939
0.091526456 0.48049122 0.69587183
0.20328227 0.44053975 0.60502023
0.19861537 0.44204411 0.60076922
0.19573735 0.44268373 0.59756273
0.19242498 0.44004798 0.59659189
0.22418037 0.43489242 0.63525665
0.22332527 0.44970587 0.60814792
0.22000141 0.45254582 0.60381424
0.20301759 0.44398436 0.60415047
0.1937557 0.44348258 0.59576666
0.18825287 0.44530278 0.59363604
0.17341729 0.49944058 0.61779439
0.22706085 0.45436531 0.6077885
0.22347037 0.45513019 0.60422635
0.21613014 0.45370388 0.60166353
0.12518913 0.48912051 0.68433756
0.19911313 0.4468773 0.60114324
0.19564083 0.4475382 0.59772611
0.19161493 0.44842184 0.59441143
0.11702061 0.44379416 0.71557742
0.13400644 0.48169667 0.63871551
0.23208235 0.45660958 0.61154145
0.23112226 0.46254948 0.6068719
0.22797684 0.45830756 0.60572737
0.22396244 0.45859888 0.60306197
0.18176371 0.50253093 0.61862606
0.20686089 0.4473516 0.60385793
0.09583015 0.45401123 0.69165778
0.073224545 0.52129829 0.65867066
0.12137749 0.44453999 0.70315081
0.23429483 0.46181849 0.61070454
0.22625476 0.46348658 0.60258579
0.13095999 0.4863891 0.65247405
0.20201048 0.45386147 0.60152334
0.14088129 0.47981876 0.61901706
0.10978971 0.52372062 0.6795522
0.074134752 0.50515068 0.66443253
0.21916378 0.46307081 0.60011542
0.19990693 0.45041913 0.60148633
0.19089688 0.4538393 0.59506637
0.14517444 0.41935748 0.6038301
0.13868612 0.41637567 0.67706335
0.083960406 0.4947021 0.67759269
0.091536991 0.4747116 0.69295102
0.23665188 0.46423507 0.61278033
0.19845499 0.45538723 0.59834909
0.19516174 0.45200127 0.59759778
0.18781155 0.49894524 0.6145786
0.2210014 0.48383656 0.61187947
0.22159827 0.47556117 0.60221159
0.15398861 0.42116979 0.6807586
0.072144464 0.51227897 0.65148079
0.12039644 0.48877797 0.67801547
0.12998635 0.47800505 0.64186364
0.075976789 0.50982428 0.65555942
0.12061235 0.50899202 0.67738974
0.23657462 0.46855938 0.61166441
0.23338877 0.47026607 0.60749048
0.22730944 0.46809265 0.60236114
0.22255743 0.46945679 0.60068899
0.21806972 0.46765944 0.59996676
0.20779264 0.45793611 0.60230601
0.156681 0.5048548 0.63716602
0.14392959 0.48357809 0.63015515
0.070769116 0.52274281 0.65373266
0.22898489 0.47124398 0.60374731
0.20547353 0.46197337 0.60261798
0.19826536 0.45983827 0.59757686
0.19451936 0.45767623 0.59548539
0.14836757 0.49910393 0.64266789
0.14370993 0.49548203 0.64470041
0.10386509 0.49430096 0.68309331
0.17794403 0.5145458 0.63942343
0.14305554 0.41533133 0.60813689
0.2022997 0.459108 0.60092646
0.18622075 0.51138771 0.62961382
0.14037099 0.49378544 0.65195358
0.13979396 0.49211884 0.64718145
0.1669593 0.43356207 0.59918445
0.11467531 0.47306255 0.65514433
0.17581972 0.51506251 0.64354789
0.133396 0.39555597 0.64098448
0.15189677 0.4993065 0.63657951
0.1998357 0.46359995 0.59966874
0.19341931 0.46217045 0.59582871
0.14506908 0.49717429 0.64930731
0.18002948 0.50623029 0.62338769
0.21577848 0.48126605 0.6138308
0.15344739 0.48878425 0.62551397
0.13530898 0.42039731 0.6896708
0.23695141 0.47434768 0.61375314
0.23306817 0.47614643 0.60874873
0.22790024 0.47647223 0.6047945
0.14633951 0.49881795 0.65273273
0.1738368 0.50837243 0.62880856
0.20367546 0.46705776 0.60213453
0.18036576 0.48725477 0.60594106
0.12563604 0.48172209 0.65127635
0.12351686 0.41997719 0.68186712
0.1507937 0.42636424 0.60359317
0.20628679 0.47042719 0.6039871
0.19949836 0.46888378 0.60046053
0.18811275 0.45937341 0.59454942
0.13681436 0.47632077 0.62149638
0.12031186 0.44400316 0.71895391
0.19539066 0.40553498 0.66719568
0.11693411 0.46954405 0.64980841
0.19067636 0.46721941 0.59705615
0.16288492 0.49081939 0.61427498
0.14164425 0.49514118 0.65478766
0.10999575 0.44809344 0.65118998
0.10315085 0.43817276 0.67327887
0.10387827 0.4477655 0.7018382
0.092283361 0.4653326 0.69901055
0.2107251 0.46983463 0.60499603
0.19532321 0.46738279 0.59903163
0.18029143 0.4970957 0.61351031
0.062153295 0.52554554 0.65462339
0.16668297 0.50978631 0.63415283
0.14131382 0.41810909 0.68404317
0.23533677 0.48123685 0.61664087
0.23499854 0.4802303 0.614133
0.23158306 0.48197237 0.61131167
0.22632889 0.48146558 0.60738629
0.10171098 0.45036802 0.6706903
0.11079723 0.48960775 0.67796206
0.19872978 0.47407445 0.60176659
0.19507775 0.47016567 0.59915537
0.17252886 0.51365209 0.63947845
0.12006052 0.47648051 0.65263218
0.21459247 0.47715434 0.60872477
0.16737412 0.39152634 0.6737709
0.13570933 0.4180932 0.68557435
0.13419905 0.41522521 0.66653603
0.11514977 0.49006248 0.67827386
0.20929956 0.47559264 0.60796618
0.20487465 0.47572923 0.60479695
0.21934228 0.47940451 0.60600185
0.12976363 0.4188264 0.68467283
0.091911167 0.47924304 0.70059264
0.19407195 0.47389588 0.60027868
0.1887272 0.47245786 0.59953201
0.18704465 0.49392736 0.60980237
0.092176631 0.48515233 0.68858224
0.16591886 0.50385243 0.62763047
0.15411483 0.50596112 0.64801538
0.18746504 0.40546238 0.6695264
0.17413604 0.4895277 0.60880673
0.23162884 0.48506555 0.61955208
0.22816417 0.48572093 0.61448431
0.22440322 0.4851931 0.61153626
0.20096485 0.47720158 0.60349017
0.063752815 0.52909362 0.64906967
0.072094381 0.5066064 0.65739602
0.09275265 0.46370274 0.69975895
0.081274427 0.49831161 0.66473949
0.13694596 0.41659436 0.67933846
0.080450051 0.49679893 0.67275339
0.20987241 0.48198128 0.6117419
0.20876333 0.48015869 0.60966372
0.19643703 0.47946864 0.60369182
0.13104892 0.48880738 0.66073489
0.20404083 0.48164138 0.60723442
0.19964367 0.48079264 0.60527557
0.19189258 0.4787201 0.60251999
0.18801671 0.47827491 0.60134882
0.14865215 0.48696825 0.62797058
0.14570659 0.42427284 0.60583603
0.12216867 0.44438568 0.71248698
0.16828527 0.51295561 0.64112556
0.12776996 0.44643438 0.70828307
0.077007838 0.50225306 0.66946697
0.16945024 0.48913068 0.60920537
0.10993415 0.4586553 0.72405219
0.21304789 0.48665607 0.61759025
0.15043099 0.41845024 0.6562444
0.12687348 0.48636127 0.658086
0.21750504 0.48532519 0.62214887
0.20851174 0.48704469 0.61375386
0.2030734 0.48645511 0.61040902
0.19804138 0.4853313 0.60805863
0.19488485 0.48525637 0.6068061
0.19054952 0.48437873 0.604756
0.18639442 0.48289415 0.60331035
0.1468643 0.41916072 0.68331236
0.15200293 0.48758718 0.62204099
0.12700358 0.47066817 0.64056164
0.077147 0.50074023 0.66086197
0.1144799 0.54357851 0.67182428
0.15614617 0.48777989 0.61329341
0.096674107 0.47144902 0.71563655
0.10187974 0.44478846 0.67770165
0.15870476 0.5088222 0.64569467
0.079175845 0.5169884 0.67087436
0.21799505 0.48925114 0.62971002
0.21491709 0.49065906 0.62476009
0.21104223 0.49146819 0.62019646
0.18944289 0.48956949 0.60730982
0.095518284 0.48755637 0.68170017
0.14351596 0.42345041 0.61795372
0.089879751 0.49023044 0.68112785
0.064131781 0.52960712 0.65974408
0.061530441 0.5287137 0.66268367
0.062579989 0.52557099 0.66640341
0.18688022 0.46501336 0.68868774
0.059622839 0.52334386 0.66817027
0.090070702 0.48172009 0.70640451
0.090668537 0.48376048 0.70303893
0.10242528 0.4414112 0.67528045
0.069931448 0.52054971 0.67020071
0.072370291 0.52103543 0.66734481
0.098571487 0.44998425 0.69413149
0.18718457 0.51391137 0.63696545
0.092157677 0.47472394 0.70916617
0.22341059 0.48556536 0.61698884
0.1932531 0.51249129 0.63786274
0.19050258 0.51394486 0.6411097
0.10760964 0.50773501 0.69286418
0.18612549 0.51484758 0.6429407
0.07454811 0.50390887 0.65655017
0.22290964 0.48446578 0.62091351
0.2198348 0.48327634 0.61939114
0.18274513 0.51536578 0.64519179
0.076148994 0.51745766 0.67429596
0.073417693 0.51726574 0.67528248
0.086849391 0.49630508 0.69011652
0.22611275 0.48456663 0.62332779
0.19721389 0.51135093 0.64253646
0.17880115 0.51573479 0.64881551
0.13135076 0.48621631 0.69248843
0.070602745 0.51549482 0.67661071
0.19347313 0.51319385 0.64585608
0.1735564 0.51558 0.64986581
0.093048759 0.47259393 0.71104348
0.18879004 0.51462448 0.64628428
0.17209744 0.51515591 0.65323293
0.11528529 0.4374187 0.69798309
0.082583159 0.51434249 0.67529786
0.07818111 0.51459146 0.67844367
0.06900163 0.51049763 0.67654479
0.17503807 0.49535939 0.61400932
0.18663251 0.51495713 0.6501087
0.16790053 0.51400197 0.6546362
0.075339749 0.51598251 0.67743194
0.073445261 0.51086181 0.68011934
0.23005158 0.48170096 0.62761366
0.18163419 0.5151934 0.65409577
0.10374583 0.45076469 0.66200185
0.11861873 0.4276706 0.69316375
0.20044522 0.51003057 0.64741272
0.19619542 0.51206732 0.65021867
0.16305853 0.51139069 0.65771335
0.18237363 0.4460139 0.68784726
0.084327705 0.51221251 0.67950428
0.092053995 0.48923472 0.70155233
0.14689134 0.39484754 0.65269768
0.15086445 0.3948569 0.65612054
0.15322298 0.39249814 0.66172582
0.15192546 0.39652786 0.66403347
0.15562904 0.39098746 0.66707486
0.15978755 0.39007366 0.67188287
0.11679777 0.431862 0.69595629
0.13519324 0.47718793 0.63439065
0.13894571 0.39319143 0.64979708
0.13822085 0.39761627 0.6518206
0.14314288 0.39427295 0.65279406
0.13282788 0.42374155 0.69466239
0.12855715 0.42356727 0.69381678
0.13371387 0.39763176 0.64691538
0.15192294 0.39733946 0.65830559
0.15375878 0.39558187 0.66942185
0.1633781 0.39458403 0.67694497
0.13634624 0.42521897 0.69597536
0.11885942 0.46163598 0.73023981
0.11991785 0.43229562 0.69763613
0.11188892 0.4732407 0.72780645
0.13535206 0.48941347 0.65041041
0.14168064 0.39659801 0.65318841
0.14574841 0.39950046 0.65459424
0.15226363 0.40143937 0.65704757
0.11361763 0.46280083 0.72838253
0.18028685 0.4056071 0.66698569
0.18322937 0.44227886 0.68408716
0.16140112 0.50300574 0.62934351
0.15842992 0.39857131 0.67512465
0.11679087 0.45286009 0.72623014
0.1682739 0.49760425 0.61987495
0.12747204 0.42739394 0.69673717
0.15403755 0.39916381 0.67005467
0.093900643 0.46727487 0.6828379
0.18062252 0.40875155 0.66807151
0.18915673 0.4105469 0.67168123
0.1224298 0.42680883 0.69393557
0.13439922 0.40183762 0.64784926
0.13677186 0.40087008 0.65143889
0.1406998 0.40475589 0.65177202
0.1446681 0.40257078 0.65390062
0.14856797 0.40614286 0.65355253
0.11571196 0.45803756 0.72793543
0.11927626 0.43736264 0.69976395
0.12361354 0.42294073 0.69029123
0.18219961 0.45784986 0.69019377
0.10837178 0.47003531 0.72677028
0.14477517 0.408701 0.65126902
0.15274118 0.41008028 0.65359116
0.11494973 0.42711347 0.68957102
0.11001157 0.51609224 0.691594
0.15768936 0.40425035 0.67077923
0.14453444 0.41459492 0.65108645
0.10360216 0.4761453 0.72390872
0.18377022 0.41743302 0.66829228
0.13117768 0.44897604 0.72048044
0.17938019 0.46077114 0.6881777
0.1524381 0.41499293 0.65420556
0.16143733 0.4862749 0.60910314
0.18679139 0.42534199 0.66681498
0.15478526 0.41507664 0.65911329
0.15736341 0.41235906 0.66491926
0.15988645 0.41838938 0.67181021
0.16383111 0.41879669 0.67374992
0.18582094 0.42888585 0.66893357
0.099714048 0.4653275 0.67552829
0.1942205 0.43131116 0.67442405
0.13356739 0.4727926 0.63453114
0.18437201 0.43228608 0.67099977
0.18720672 0.43388367 0.67406929
0.19218677 0.43400896 0.67621607
0.11532144 0.537727 0.6693325
0.12101071 0.52685452 0.66846216
0.10710657 0.50475198 0.6881355
0.10712652 0.48761636 0.67714107
0.14855964 0.42146397 0.68663752
0.13667601 0.47197092 0.61462867
0.11339574 0.46629047 0.65233153
0.11307804 0.49608016 0.68210828
0.18171631 0.43763953 0.67615533
0.18539628 0.43707705 0.67740238
0.11639153 0.48312631 0.67129421
0.094358988 0.4742946 0.6833297
0.11163775 0.47550306 0.66621602
0.1244871 0.47811133 0.64807338
0.11788188 0.54082185 0.66555941
0.14546052 0.41863537 0.6544472
0.14180224 0.41333517 0.61184227
0.14281711 0.411874 0.61570525
0.1414057 0.41607323 0.61652648
0.14480281 0.40990871 0.62055171
0.14356743 0.41384518 0.62385142
0.16885671 0.42997915 0.5983656
0.15876719 0.49128357 0.62360287
0.13283944 0.39987522 0.64246482
0.10143395 0.4603194 0.7139107
0.1407761 0.41578379 0.61249232
0.18441598 0.48768947 0.60642779
0.063903898 0.52238536 0.65415424
0.10495199 0.45832562 0.71719307
0.13299665 0.40339312 0.64007556
0.075492978 0.5008077 0.66425037
0.14227025 0.42031842 0.6098789
0.13513809 0.4065187 0.64167488
0.15281695 0.40115225 0.66211987
0.091825098 0.46894458 0.68943793
0.14095084 0.41106626 0.62904704
0.15419728 0.4041945 0.65923041
0.14237958 0.41938931 0.61974919
0.14415565 0.41903692 0.62449479
0.14404504 0.4192856 0.6293748
0.13700074 0.40647045 0.64752829
0.15563446 0.40920883 0.65747339
0.15550701 0.40515313 0.66408193
0.15335223 0.40116405 0.66666806
0.14550117 0.42792469 0.61081207
0.14301726 0.42452922 0.61343509
0.13042334 0.48464257 0.64879692
0.13840824 0.41232583 0.64026976
0.093458325 0.47615352 0.71637851
0.1458654 0.4236286 0.62373328
0.15873209 0.50800586 0.6407454
0.16764857 0.50629252 0.629345
0.14028762 0.41521603 0.63426286
0.13982558 0.41038653 0.64611864
0.085503496 0.49373817 0.67419672
0.065639332 0.51604527 0.66606134
0.14074932 0.41487154 0.64733493
0.15734245 0.40897018 0.66338766
0.14344062 0.4933567 0.64121068
0.14732733 0.42886752 0.61659068
0.17309476 0.49295157 0.61248189
0.17058919 0.49393743 0.61515832
0.17297548 0.50197393 0.62185973
0.15065496 0.43140045 0.6224215
0.1488926 0.42615542 0.62484354
0.14732359 0.42717049 0.62881565
0.14721176 0.494405 0.63522661
0.13958849 0.42004615 0.63630402
0.13852791 0.41819355 0.64245987
0.14906926 0.43482736 0.61682093
0.14947307 0.43081912 0.61800653
0.18570052 0.50655091 0.62194371
0.14887336 0.43744826 0.61141044
0.11098814 0.47311488 0.66265821
0.14318535 0.49129024 0.63846737
0.11494726 0.4775151 0.66027474
0.13654475 0.4259924 0.6381157
0.13625629 0.4225314 0.64460474
0.13729168 0.42030746 0.65055293
0.1408661 0.4185234 0.65484631
0.17144974 0.5103693 0.63205308
0.13825031 0.48823881 0.64102
0.14753143 0.44227746 0.60916644
0.14555825 0.44215 0.6136201
0.14693192 0.4395611 0.61906064
0.14854795 0.43738484 0.62601209
0.1608827 0.50936371 0.63945639
0.14503378 0.44471109 0.61048281
0.14672923 0.44006693 0.62220502
0.12791887 0.42240024 0.65033925
0.12402233 0.42207739 0.65401793
0.12755355 0.41877398 0.65783101
0.12532336 0.41819882 0.67812473
0.066590309 0.51517862 0.65047932
0.14433023 0.45088872 0.60744512
0.14215131 0.44917551 0.61193001
0.14261092 0.44562581 0.61647731
0.14445378 0.44323257 0.62085831
0.14380424 0.44392863 0.62422144
0.1454872 0.44104826 0.62749386
0.15900823 0.4245156 0.6013149
0.12592046 0.41763547 0.66426486
0.16923697 0.51223975 0.63744819
0.11970896 0.42101306 0.66294211
0.12313091 0.41915262 0.66182745
0.14177254 0.44616428 0.61969662
0.12089106 0.42426318 0.65431792
0.11649255 0.42403638 0.65834874
0.12044548 0.4191328 0.67025399
0.09116751 0.47729522 0.71283269
0.13861388 0.45309097 0.61369491
0.13926251 0.45013863 0.61809695
0.13866925 0.45047891 0.62143219
0.14081752 0.44765216 0.62586826
0.14075927 0.44628078 0.6299296
0.13708955 0.40638664 0.63251805
0.11917447 0.42725357 0.65110594
0.11704054 0.42118144 0.66668141
0.17100777 0.51465189 0.64640671
0.11492482 0.42691252 0.65448099
0.11332197 0.42375821 0.66735125
0.094679862 0.4655188 0.70499909
0.1574294 0.48981968 0.61758482
0.11197807 0.429535 0.65587837
0.11251737 0.42619786 0.65876746
0.11133718 0.42657396 0.66251773
0.1159661 0.42202732 0.67321503
0.16239926 0.50510448 0.6309129
0.15684487 0.48969182 0.62036258
0.13523868 0.45767927 0.61558431
0.13574266 0.45408875 0.62382758
0.13763362 0.45184255 0.62881786
0.17715064 0.49197623 0.61002743
0.13419652 0.45692939 0.61948818
0.113814 0.43348217 0.64887071
0.11224761 0.42496225 0.67623597
0.11527252 0.42363083 0.68114263
0.13902971 0.47716159 0.62776268
0.13852254 0.49016529 0.64376032
0.10833252 0.43669522 0.6536361
0.10885075 0.43316925 0.65712541
0.10796866 0.43203229 0.66089916
0.10809842 0.42983547 0.66512299
0.10987559 0.42743424 0.67036784
0.11783008 0.42408797 0.68612051
0.1201823 0.42298946 0.68630439
0.22233535 0.48242506 0.6079011
0.13359843 0.45972779 0.62677032
0.13382989 0.45757532 0.63130826
0.10801657 0.4285872 0.67251432
0.13283008 0.46350875 0.61855835
0.13290341 0.46116927 0.62206197
0.091820225 0.47724479 0.69887578
0.10522123 0.43894008 0.66020566
0.10480007 0.437509 0.66317672
0.10477695 0.43392575 0.66810757
0.10505591 0.43311828 0.6706605
0.10607798 0.43102255 0.67531961
0.10835508 0.42907035 0.67978179
0.11155405 0.42778152 0.68467963
0.13465574 0.39975125 0.63392156
0.14228466 0.40671304 0.62434745
0.15008283 0.4316496 0.60807562
0.14360885 0.48158872 0.62665379
0.13889256 0.47999614 0.63241601
0.17607045 0.48584166 0.60578609
0.16018519 0.48891532 0.61202699
0.14067189 0.47552642 0.6127342
0.14815153 0.49640831 0.63877338
0.17950593 0.50863832 0.62690574
0.16207609 0.43124124 0.60056341
0.14892963 0.41829163 0.60527408
0.15373561 0.42159164 0.60308129
0.1479346 0.48508549 0.62393397
0.14709836 0.49939018 0.6467855
0.19272599 0.49905509 0.61510545
0.13788171 0.41052553 0.63533437
0.14090225 0.47875124 0.62972248
0.15672658 0.42876425 0.60161287
0.13887411 0.4017317 0.63044542
0.11658744 0.46448103 0.64640218
0.16160597 0.49149838 0.61953872
0.14763764 0.49993214 0.6582489
0.18493156 0.49727085 0.61261058
0.18401241 0.46493351 0.59510869
0.14138952 0.47984755 0.62589902
0.21498287 0.47275898 0.60303801
0.14631724 0.47316179 0.60825282
0.13422832 0.40370086 0.63595784
0.18206258 0.44192019 0.59437871
0.18226193 0.48279023 0.60318404
0.13451779 0.47232133 0.61823666
0.14307019 0.40545601 0.62712675
0.18187401 0.47058532 0.59772736
0.1170942 0.4868072 0.67476171
0.16375935 0.42740551 0.60011387
0.14857972 0.4994581 0.66268086
0.12234385 0.48618647 0.67253959
0.15072954 0.50370032 0.6556291
0.15331788 0.50540626 0.65740907
0.15641463 0.50794679 0.65547675
0.16086411 0.51095474 0.6530655
0.16597024 0.51361859 0.65073574
0.11196715 0.48515755 0.67416531
0.12193899 0.48630702 0.66889173
0.15527512 0.50750947 0.65266073
0.16010091 0.51044953 0.6503976
0.16579336 0.51323831 0.64704376
0.11394124 0.48160896 0.6715427
0.18415627 0.43783426 0.59511793
0.18035059 0.43468305 0.59708571
0.17529094 0.43218085 0.59837985
0.18881845 0.44069228 0.5939942
