ply
format ascii 1.0
comment PCL generated
element vertex 1360
property float x
property float y
property float z
element camera 0
property float view_px
property float view_py
property float view_pz
property float x_axisx
property float x_axisy
property float x_axisz
property float y_axisx
property float y_axisy
property float y_axisz
property float z_axisx
property float z_axisy
property float z_axisz
property float focal
property float scalex
property float scaley
property float centerx
property float centery
property int viewportx
property int viewporty
property float k1
property float k2
end_header
0.060362998 -0.143475 0.028651997
0.071874395 -0.043662503 0.023780897
0.060973998 -0.14638799 0.05730148
0.098881297 -0.047875397 0.013887499
0.037262 -0.114721 0.0094459988
0.073300302 -0.10363 0.025186699
0.1092738 -0.169662 0.087747201
0.15477249 -0.079444103 0.0770339
0.030817494 -0.090351 0.045105498
0.1457275 -0.112894 0.039266299
0.031605095 -0.090277001 0.051587738
0.055014201 -0.14551799 0.033663299
0.043159798 -0.14407299 0.05742123
0.062312298 -0.144146 0.033787698
0.093303397 -0.115729 0.045407698
0.043623999 -0.14578199 0.039112501
0.043670498 -0.157188 0.099593997
0.042812295 -0.090229005 0.070331298
0.1046319 -0.049083903 0.0080090985
0.109794 -0.047634497 0.0064556971
0.11649956 -0.047867201 0.005624298
0.12300818 -0.0468916 0.0061307997
0.12883079 -0.048049703 0.0070140995
0.16109151 -0.072077505 0.068934113
0.1595449 -0.047637299 0.0281015
0.043755695 -0.129336 0.011523698
0.087569401 -0.110379 0.069553435
0.1005549 -0.078155905 0.0042360984
0.045212999 -0.149471 0.068982005
0.056006499 -0.14611 0.038996898
0.043756194 -0.14310099 0.027755797
0.1112332 -0.11872701 0.034897998
0.1482216 -0.102237 0.069830671
0.074865893 -0.049322501 0.021244098
0.079499498 -0.047949903 0.019797999
0.086006999 -0.048402801 0.021295998
0.092724398 -0.048546799 0.021771498
0.095139198 -0.11291301 0.035457097
0.037472397 -0.144355 0.039386801
0.11115728 -0.119403 0.056948408
0.14075869 -0.116654 0.045235399
0.080513194 -0.163351 0.06839443
0.091578998 -0.104019 0.025225397
0.10064249 -0.112009 0.029326299
0.050837398 -0.151675 0.1114614
0.068326399 -0.14005999 0.045188099
0.10436749 -0.110151 0.025094599
0.16674539 -0.0482319 0.028559599
0.042983495 -0.058542505 0.045213699
0.11032899 -0.163225 0.086494498
0.098685898 -0.17481299 0.075111195
0.043347597 -0.078218803 0.0217124
0.065978095 -0.042146303 0.048930198
0.098054901 -0.116821 0.044446398
0.037960894 -0.143392 0.033549398
0.098681696 -0.114468 0.062908359
0.093163595 -0.113465 0.063215375
0.088796496 -0.167796 0.073352098
0.11250055 -0.049804203 0.0046698004
0.11891048 -0.050124504 0.0045107976
0.12280202 -0.049974598 0.0044716969
0.068203002 -0.108119 0.026322
0.12302464 -0.121618 0.045064699
0.16460049 -0.084261902 0.044880196
0.0319364 -0.101855 0.051477149
0.049567901 -0.134096 0.074836895
0.037903294 -0.084363401 0.027723499
0.093035795 -0.110812 0.0324324
0.065983593 -0.13996799 0.034660697
0.0399663 -0.0895053 0.067701392
0.12922138 -0.11038 0.023907598
0.12286056 -0.107968 0.0212669
0.026377097 -0.108494 0.039347596
0.0790077 -0.103229 0.024891
0.037781499 -0.14448799 0.0453339
0.057404399 -0.145202 0.092987597
0.073748901 -0.114621 0.068981238
0.097966395 -0.150676 0.06426008
0.054378994 -0.16276699 0.1066049
0.043738596 -0.14588399 0.0451313
0.0555012 -0.139044 0.086515896
0.061802097 -0.049345598 0.038910501
0.086456098 -0.112618 0.034597598
0.037342198 -0.14343399 0.05078597
0.070000999 -0.122417 0.031303898
0.1288217 -0.12109601 0.051350918
0.1045158 -0.054428205 0.0066245981
0.11128049 -0.055015005 0.0043172985
0.11675185 -0.054000303 0.0037183985
0.122926 -0.054309405 0.0036043972
0.12738462 -0.055161402 0.004659798
0.1056826 -0.106971 0.022163998
0.11700777 -0.108083 0.0209249
0.11135699 -0.107816 0.0214338
0.066711597 -0.047171898 0.039336897
0.031741194 -0.090387002 0.038990296
0.087562293 -0.089703001 0.082731299
0.16250721 -0.050372504 0.0297725
0.17233829 -0.048040099 0.030954299
0.1613612 -0.077750303 0.069292352
0.061845299 -0.052014798 0.032901898
0.066967197 -0.049050301 0.033306699
0.072277293 -0.125526 0.045134597
0.12323511 -0.088305302 0.0095575973
0.13506269 -0.109642 0.025194
0.0746627 -0.054306105 0.020885799
0.080590293 -0.054427803 0.018586699
0.086931996 -0.054266602 0.0203593
0.092976302 -0.054448903 0.020466499
0.031839594 -0.139479 0.033149298
0.055927299 -0.133434 0.068940356
0.12286033 -0.111151 0.023860998
0.037269399 -0.128152 0.013300698
0.11738489 -0.117006 0.029867999
0.1555841 -0.098498002 0.064525232
0.1419203 -0.10413601 0.024305899
0.082044497 -0.151954 0.072802097
0.067363799 -0.054363199 0.0259379
0.14587399 -0.113374 0.045618899
0.074859396 -0.121184 0.05098401
0.044221997 -0.14536099 0.063106775
0.046085499 -0.14643699 0.0874945
0.0366944 -0.090778001 0.06354288
0.043290101 -0.16394199 0.1052732
0.12846106 -0.106985 0.021966998
0.099910095 -0.174788 0.080545999
0.073428996 -0.110413 0.031447597
0.068468697 -0.113718 0.068856895
0.1412116 -0.095803998 0.077110097
0.026138701 -0.114487 0.0448584
0.16145909 -0.054577 0.030964799
0.1666725 -0.054347105 0.031446099
0.17264229 -0.053401805 0.031616896
0.073185898 -0.15832199 0.062854327
0.033084795 -0.0844156 0.057068817
0.042628698 -0.151559 0.086723797
0.080390498 -0.11667701 0.063346989
0.092868499 -0.0664239 0.0144285
0.061204698 -0.097012006 0.077717699
0.045168601 -0.10156 0.067209959
0.055737697 -0.078818105 0.078732997
0.087482795 -0.078115702 0.085542396
0.12325653 -0.0600086 0.0038952976
0.1303151 -0.0536713 0.0062441975
0.1632701 -0.087996699 0.057321958
0.049177699 -0.14624399 0.038792998
0.061582398 -0.0602277 0.021567799
0.049679294 -0.102305 0.069638461
0.061834697 -0.078198299 0.0808369
0.0756962 -0.077715605 0.081894197
0.071190894 -0.056012705 0.0226041
0.1226941 -0.116911 0.029885998
0.14396919 -0.11105 0.031129399
0.073079698 -0.107468 0.028559297
0.028448001 -0.133361 0.039837699
0.0292437 -0.13385899 0.033691101
0.070428699 -0.134022 0.05023358
0.042906597 -0.14582999 0.074790299
0.033167794 -0.095633999 0.051124267
0.037152 -0.12164801 0.062997468
0.081575096 -0.096407004 0.080139294
0.037604697 -0.108841 0.063360222
0.1097667 -0.077669702 0.097510099
0.11210639 -0.079842001 0.096349195
0.062090296 -0.101769 0.076185599
0.13400739 -0.095793001 0.079384096
0.11671439 -0.095435001 0.082519799
0.079038695 -0.060972005 0.018009599
0.086498998 -0.061051205 0.019020699
0.092726797 -0.060136102 0.018966798
0.10380369 -0.117121 0.037110299
0.10093559 -0.11793601 0.046618201
0.1050074 -0.059477799 0.0054841004
0.11067281 -0.060731299 0.0037063994
0.117006 -0.061094105 0.0024573989
0.1283883 -0.061426699 0.004341498
0.13025309 -0.059353299 0.0052335002
0.087606102 -0.143399 0.062403318
0.16359809 -0.078151405 0.034579698
0.061347097 -0.114882 0.06781093
0.099571295 -0.097045004 0.082046002
0.081703901 -0.0779422 0.0829335
0.038426995 -0.103394 0.061730828
0.081918895 -0.144778 0.068891488
0.11787412 -0.078992605 0.095467702
0.12904064 -0.090193003 0.082279399
0.073293194 -0.060049303 0.019423097
0.042002596 -0.14124399 0.024773598
0.1349019 -0.106126 0.0232151
0.043969996 -0.096301004 0.068768799
0.031473897 -0.127839 0.020603597
0.049688794 -0.121278 0.068577237
0.1619377 -0.060360499 0.031116799
0.1714194 -0.058432601 0.034303199
0.027745195 -0.114813 0.020624299
0.1335035 -0.118105 0.034944199
0.049538195 -0.115421 0.068813339
0.049606897 -0.108731 0.068409607
0.048031494 -0.096305005 0.071449295
0.055302799 -0.15149799 0.1173125
0.16636929 -0.061512806 0.038324598
0.066175401 -0.14349699 0.044765398
0.1057131 -0.062466599 0.0045756996
0.080594301 -0.108512 0.073359996
0.091949098 -0.078006499 0.093085796
0.11042298 -0.158254 0.081232101
0.075414397 -0.157324 0.067826621
0.068689898 -0.151594 0.063559651
0.049764395 -0.169304 0.1169867
0.055530496 -0.158402 0.099894598
0.1110541 -0.120139 0.050882239
0.12219503 -0.078036904 0.094220102
0.093110897 -0.15726 0.077420399
0.067401499 -0.145054 0.063687056
0.043838196 -0.121736 0.066967227
0.044042401 -0.060990006 0.033432797
0.11124659 -0.095880002 0.082849994
0.068075798 -0.13929999 0.062775947
0.10362899 -0.17465 0.081427202
0.099451996 -0.060563199 0.0079589002
0.038662896 -0.110073 0.010467
0.057491295 -0.13993399 0.075031899
0.036890194 -0.096510001 0.032653898
0.108881 -0.15358199 0.078750998
0.11708943 -0.091147006 0.0143581
0.056453295 -0.056052305 0.0281347
0.068802096 -0.077387802 0.081721202
0.066966496 -0.064036705 0.0182781
0.073499292 -0.065670103 0.017867498
0.097685993 -0.066035904 0.0069693998
0.1048649 -0.066405602 0.0036433972
0.11099399 -0.066662103 0.0024148002
0.11700268 -0.066733904 0.0015348978
0.12347424 -0.066975504 0.0034094974
0.12860763 -0.066753805 0.0042706989
0.092876099 -0.14621599 0.063027337
0.056690894 -0.15738 0.1180906
0.0326057 -0.134225 0.050976288
0.057310894 -0.15229699 0.1070925
0.15701109 -0.10039701 0.057347059
0.045599401 -0.13406199 0.068645649
0.095587596 -0.173841 0.073506802
0.039661899 -0.061547302 0.0449517
0.0555472 -0.066156104 0.019361999
0.061158698 -0.065379404 0.0178978
0.067570597 -0.067372002 0.0166643
0.071501896 -0.066933401 0.016718999
0.078504592 -0.067385599 0.0170995
0.080499202 -0.065480798 0.017486598
0.086511999 -0.066475905 0.018539499
0.057216197 -0.152163 0.1130538
0.15814561 -0.078105599 0.0738675
0.055716299 -0.029641801 0.020375997
0.067332797 -0.111335 0.070916995
0.046189599 -0.152942 0.097093001
0.070913099 -0.12937999 0.051101048
0.070422903 -0.15602699 0.061711129
0.0490264 -0.15160899 0.1050808
0.1451847 -0.11195 0.034514599
0.10063849 -0.068101801 0.0041836984
0.093454197 -0.110645 0.069113322
0.058203999 -0.145741 0.0807923
0.037524 -0.100295 0.027589697
0.050832599 -0.146314 0.11085699
0.057715196 -0.15235999 0.099628799
0.031751998 -0.103803 0.0335394
0.062460799 -0.068702601 0.016363699
0.090156093 -0.068259604 0.0178832
0.0522383 -0.077670105 0.016507197
0.027806096 -0.121884 0.044772997
0.032101296 -0.101742 0.039079398
0.070647001 -0.129298 0.045204498
0.087292895 -0.16332099 0.0749209
0.033370197 -0.142851 0.045085598
0.042035401 -0.090025 0.024814997
0.026446298 -0.108404 0.0448476
0.035091996 -0.098010004 0.0371463
0.098932296 -0.0721213 0.0037903972
0.1050043 -0.072186999 0.0027364977
0.11100329 -0.0722178 0.0023125
0.11700033 -0.072205499 0.0025346987
0.1234748 -0.071753301 0.0032455996
0.12824833 -0.072992004 0.0043684989
0.13024139 -0.071294904 0.0053476989
0.080150396 -0.113966 0.068788975
0.027742997 -0.114769 0.050979089
0.076327197 -0.11619101 0.039046697
0.037957497 -0.095873006 0.062718712
0.053698398 -0.070762299 0.017556299
0.056006096 -0.0736688 0.016024597
0.061460998 -0.072590604 0.016032897
0.067879096 -0.072252303 0.0153738
0.073244095 -0.072856903 0.016054198
0.0775038 -0.071072899 0.017673399
0.079509698 -0.0730123 0.016901597
0.083489195 -0.072577305 0.0165645
0.087796003 -0.072417103 0.017887898
0.033599496 -0.14298099 0.039550796
0.096433893 -0.105415 0.0246333
0.043512896 -0.101685 0.013840199
0.043610498 -0.13977 0.068299718
0.044519894 -0.15185499 0.092779599
0.0914267 -0.072824702 0.0137298
0.033718094 -0.090797 0.057151698
0.14108799 -0.072420001 0.0095913969
0.039810799 -0.13312799 0.062300548
0.12844098 -0.114407 0.06878569
0.13475519 -0.072588302 0.0070884973
0.058004998 -0.151169 0.092653997
0.039242901 -0.1425 0.029200399
0.11704047 -0.120272 0.05720301
0.1046381 -0.078479104 0.003440097
0.11100271 -0.077897705 0.002971299
0.11700389 -0.078065805 0.0031511001
0.12301457 -0.078529105 0.0037244
0.12834267 -0.077380799 0.0044458993
0.11102518 -0.084165104 0.0938408
0.15142781 -0.10673 0.034988701
0.043939799 -0.145337 0.0506051
0.1457808 -0.106776 0.067289092
0.055342294 -0.078284301 0.015288699
0.061003998 -0.078299701 0.015085097
0.067004196 -0.078313202 0.0148605
0.073457897 -0.078157902 0.0156813
0.079503894 -0.077686302 0.0169059
0.086820796 -0.0785648 0.016339999
0.091951795 -0.0779652 0.013636999
0.13506261 -0.078178406 0.0082254969
0.1405955 -0.077113003 0.010767497
0.049728796 -0.072387405 0.019056898
0.0903074 -0.079688199 0.088683903
0.096386299 -0.16924199 0.071562901
0.039060898 -0.090029001 0.0276567
0.027166396 -0.12068301 0.039289299
0.043822899 -0.146201 0.080416501
0.1346577 -0.11939601 0.051564239
0.13048449 -0.079766005 0.0057994984
0.047421001 -0.151253 0.098944694
0.087725893 -0.100391 0.0784574
0.064982802 -0.14010799 0.032207999
0.048364997 -0.078325406 0.018534798
0.077509597 -0.079533599 0.017391399
0.1407945 -0.0797491 0.011568498
0.1473189 -0.108845 0.062656581
0.1485218 -0.111112 0.043763399
0.11100265 -0.083059803 0.0040702
0.11708824 -0.108727 0.074402101
0.031480901 -0.103233 0.027205199
0.048625596 -0.083830401 0.0184731
0.055897094 -0.083551399 0.016051199
0.061503496 -0.084414601 0.015378699
0.068414696 -0.0839836 0.0157617
0.073440894 -0.083790101 0.016389698
0.078508601 -0.084241599 0.017473198
0.082227692 -0.083332703 0.016511098
0.086713597 -0.084576599 0.015613198
0.093619302 -0.084318005 0.014943197
0.1058394 -0.082961805 0.0046101995
0.11680359 -0.083089799 0.0042147003
0.12150357 -0.0831879 0.0048455968
0.12367616 -0.0850752 0.0064704977
0.12915739 -0.084179401 0.0080787987
0.1416553 -0.083779402 0.0126798
0.049703196 -0.164481 0.10588799
0.089411095 -0.15889899 0.06702359
0.067180902 -0.152649 0.057032891
0.030903198 -0.0840104 0.039197601
0.057375096 -0.163112 0.11861309
0.075616494 -0.095922999 0.080190301
0.053504199 -0.0851776 0.0175469
0.087561592 -0.116415 0.045324799
0.1047531 -0.086165704 0.0081901997
0.1102463 -0.0860506 0.0064181983
0.11695398 -0.086336702 0.0062208995
0.13642 -0.085708104 0.0119619
0.032345198 -0.095191002 0.045174699
0.050058298 -0.066323198 0.0218504
0.15580779 -0.085859403 0.072032802
0.1574966 -0.090154 0.028750999
0.066980496 -0.14005899 0.039267696
0.029408894 -0.121765 0.027133297
0.0490283 -0.137309 0.086838901
0.075667903 -0.083507501 0.0822668
0.079908893 -0.118618 0.050905038
0.048994601 -0.090275005 0.020187199
0.054693699 -0.090124004 0.018273797
0.061003096 -0.088049501 0.0169672
0.067006201 -0.088063098 0.016704798
0.073004901 -0.0880659 0.016764998
0.079152398 -0.090401001 0.0185332
0.087665603 -0.088807099 0.016478397
0.094053596 -0.089842506 0.016105298
0.098793395 -0.089984901 0.015580598
0.12749586 -0.088350005 0.0111745
0.1290271 -0.091109 0.0130025
0.1353076 -0.090008005 0.0127551
0.14081749 -0.090066999 0.014613397
0.055167399 -0.12150901 0.068386726
0.045970298 -0.14083199 0.092336699
0.026755594 -0.114885 0.033158999
0.056676097 -0.15909299 0.1210358
0.042884201 -0.15248799 0.080267899
0.061433095 -0.054755501 0.027638897
0.15776891 -0.100383 0.050309349
0.069644094 -0.083589204 0.081895597
0.061003897 -0.091543004 0.017563
0.068335295 -0.091981001 0.018251199
0.073075198 -0.091325 0.017883398
0.084782697 -0.091965005 0.018636197
0.12285015 -0.090934999 0.0135567
0.044520997 -0.140312 0.0743808
0.041063994 -0.098126002 0.065254591
0.094852798 -0.158981 0.0787156
0.048542999 -0.103692 0.0100017
0.045222901 -0.089753605 0.022213198
0.029708095 -0.12721199 0.045371398
0.093543202 -0.095883004 0.018823497
0.099003397 -0.094400004 0.017041098
0.1054792 -0.095596999 0.016948897
0.11100684 -0.096220002 0.016445898
0.11710466 -0.095881999 0.0161139
0.1224523 -0.095621005 0.0170132
0.12945613 -0.094903 0.016099799
0.1349913 -0.094769001 0.0156652
0.042781398 -0.096138999 0.024939898
0.049139895 -0.096945003 0.0218402
0.0547015 -0.096577004 0.020919498
0.061610397 -0.095623001 0.019467399
0.067065895 -0.096445002 0.020156499
0.073836192 -0.095797002 0.019515697
0.079979599 -0.096789002 0.0211007
0.086889997 -0.096322 0.020553898
0.1393026 -0.094769999 0.0168036
0.069858797 -0.12774 0.057132609
0.14661039 -0.095911004 0.0215948
0.1638719 -0.078439005 0.0631027
0.060961898 -0.103203 0.023770098
0.098500997 -0.097851001 0.018583797
0.1035049 -0.097881004 0.017971098
0.12450524 -0.097918004 0.018066399
0.12856233 -0.098228998 0.018946897
0.13499939 -0.097790003 0.018715497
0.1413049 -0.096041001 0.0190567
0.086333498 -0.15784299 0.063382678
0.061221097 -0.121705 0.06671001
0.075648293 -0.090305999 0.081528097
0.10526939 -0.16960399 0.086622201
0.13595819 -0.098177001 0.077782199
0.056155294 -0.12811899 0.067330062
0.086904697 -0.15786099 0.075553901
0.0556316 -0.115359 0.068761528
0.087416999 -0.15199199 0.074241802
0.051431999 -0.100392 0.020780597
0.055650599 -0.102195 0.021109298
0.060627796 -0.102082 0.022612497
0.067001402 -0.100472 0.0226449
0.073138699 -0.10028 0.0221138
0.079016 -0.100496 0.022911698
0.087994501 -0.100468 0.0229562
0.11251289 -0.100717 0.017350998
0.11550782 -0.10071401 0.0173418
0.14500329 -0.100611 0.023154099
0.145919 -0.089528605 0.078920603
0.050269999 -0.102153 0.014281597
0.074395999 -0.138834 0.063299239
0.054699399 -0.084788904 0.077765703
0.029332295 -0.12318001 0.0322152
0.086849198 -0.084474005 0.083779901
0.062423598 -0.084161304 0.080802299
0.099941395 -0.029719802 0.0067762993
0.099631496 -0.0252888 0.0088160001
0.043583699 -0.115947 0.06745144
0.099409401 -0.15755099 0.073967695
0.14585799 -0.106851 0.028471097
0.1060721 -0.15719099 0.081043996
0.061251897 -0.13980199 0.061338857
0.1344191 -0.029524701 0.015660398
0.15329529 -0.095472999 0.0270373
0.055253901 -0.104313 0.071521901
0.067918196 -0.0253771 0.015066899
0.104996 -0.0292095 0.0086451992
0.1105075 -0.0284962 0.010445997
0.056150399 -0.10763101 0.014552299
0.0626975 -0.126864 0.026837997
0.1389101 -0.030094201 0.017149799
0.069180802 -0.114393 0.026736498
0.10173769 -0.170885 0.077743001
0.0548729 -0.140343 0.0925707
0.15329659 -0.083688602 0.0199784
0.073698893 -0.13949299 0.051669989
0.12260773 -0.025488699 0.0149987
0.041919298 -0.099710003 0.017646499
0.0657738 -0.114756 0.023014199
0.079741597 -0.0261447 0.016337499
0.11682517 -0.084287405 0.093104899
0.1048968 -0.169716 0.080762103
0.14614099 -0.030324599 0.027273498
0.055975296 -0.101376 0.073627196
0.147817 -0.102309 0.026088201
0.061366796 -0.132774 0.026504699
0.1053378 -0.157501 0.075445496
0.0929107 -0.157298 0.068663985
0.1352056 -0.035813004 0.0157362
0.13909879 -0.034299597 0.017099999
0.14156939 -0.035611197 0.018790998
0.1457452 -0.035913698 0.021881498
0.1587365 -0.084444702 0.027291197
0.1487308 -0.035672203 0.0252534
0.1048195 -0.163809 0.081330501
0.0541097 -0.108253 0.010187399
0.057165496 -0.083206005 0.078854397
0.0556935 -0.132451 0.020587698
0.079920992 -0.14028299 0.057190489
0.093148999 -0.163268 0.069838516
0.099208698 -0.163767 0.074782595
0.061766598 -0.114238 0.0196594
0.051666297 -0.12154501 0.0120291
0.050645299 -0.096370004 0.072802998
0.077133194 -0.147627 0.054958098
0.072355099 -0.120368 0.034116596
0.1579451 -0.071716703 0.074154697
0.1512298 -0.037028603 0.027553499
0.0537716 -0.12814899 0.017104
0.0555906 -0.095575005 0.075863399
0.16112709 -0.034371302 0.031452596
0.036996901 -0.066236101 0.044970401
0.053983301 -0.113488 0.0098356977
0.078364797 -0.145329 0.053635649
0.081154399 -0.14599399 0.055227939
0.064826801 -0.10653801 0.0240805
0.059993096 -0.12408201 0.0230566
0.16528159 -0.035328403 0.033687599
0.1713161 -0.036315404 0.039503701
0.10933129 -0.162847 0.081562698
0.10522649 -0.17419 0.085934103
0.1501064 -0.096776001 0.024190899
0.056290999 -0.115122 0.014254898
0.16734309 -0.039921701 0.030492298
0.16971061 -0.0382066 0.034049399
0.1718484 -0.0418415 0.033283897
0.1037268 -0.162938 0.077458203
0.1555097 -0.097304001 0.030884899
0.064734399 -0.133077 0.029946299
0.056280896 -0.12648199 0.021182399
0.1000914 -0.151072 0.068633251
0.099082798 -0.16928199 0.074852303
0.13451099 -0.0413519 0.012572899
0.058974098 -0.116912 0.018386699
0.17399049 -0.0394141 0.038088597
0.12925921 -0.108865 0.074867398
0.093161598 -0.152091 0.068366989
0.083297595 -0.15319799 0.061070669
0.086356796 -0.14594799 0.058110368
0.091903396 -0.14958699 0.059516929
0.093508996 -0.15163 0.06321758
0.1406613 -0.042873301 0.014834497
0.1431576 -0.041306898 0.018524699
0.14660439 -0.042651601 0.020147
0.15097719 -0.042782299 0.022865199
0.1439371 -0.093424 0.0181894
0.17688949 -0.042748399 0.039079599
0.053579099 -0.10329 0.015866898
0.087321103 -0.152384 0.06243762
0.1345199 -0.083258599 0.086363003
0.065601699 -0.109186 0.023421898
0.063572794 -0.122376 0.024203397
0.069836393 -0.132911 0.05769103
0.076285996 -0.137707 0.0561499
0.090865396 -0.167171 0.065341778
0.1557304 -0.090363003 0.071160398
0.1333943 -0.044153601 0.010047898
0.17510889 -0.044500701 0.034603901
0.1491033 -0.047288597 0.019291099
0.1785723 -0.048340201 0.038510699
0.045967795 -0.055695198 0.045512497
0.045015596 -0.169305 0.1118221
0.1345778 -0.048576899 0.0098308995
0.1414876 -0.048331998 0.012945097
0.1459507 -0.049000397 0.016223799
0.152833 -0.048563302 0.0212842
0.1558218 -0.047837399 0.024963498
0.15605849 -0.085130103 0.0235098
0.031319395 -0.10828301 0.014085799
0.1762736 -0.048636504 0.034660198
0.15033109 -0.085129499 0.0180411
0.0977685 -0.157389 0.071047202
0.065674298 -0.12657699 0.029204099
0.069992602 -0.14044699 0.0482421
0.058371097 -0.127406 0.024525598
0.0880633 -0.149507 0.05808251
0.056554198 -0.122148 0.019313298
0.1568678 -0.082198903 0.023255099
0.047156699 -0.146137 0.093911201
0.15898719 -0.054068901 0.0269701
0.056338899 -0.1388 0.080599599
0.1353938 -0.054844402 0.0086963996
0.14139579 -0.054550603 0.012692198
0.1465105 -0.054923505 0.016027898
0.1502364 -0.055065699 0.018402498
0.15312949 -0.054222099 0.020261899
0.1567885 -0.055027001 0.023313299
0.1763131 -0.055078201 0.034779198
0.1791364 -0.054474205 0.0388643
0.1089317 -0.157098 0.076780699
0.059479799 -0.13620499 0.0233334
0.1394528 -0.0565736 0.0108358
0.091322295 -0.148132 0.05949118
0.1453025 -0.0889569 0.0165723
0.085002095 -0.142158 0.059917927
0.134665 -0.060626999 0.0071693994
0.1402908 -0.061041005 0.010117199
0.14307019 -0.060299098 0.0126165
0.14636929 -0.060623802 0.015821099
0.1528306 -0.060760602 0.019863799
0.1568832 -0.060672 0.023404699
0.15988779 -0.060563199 0.027419198
0.17795441 -0.059479401 0.040165499
0.055829599 -0.053723998 0.033131801
0.028050095 -0.104216 0.045073498
0.15516239 -0.071907602 0.077250198
0.033759199 -0.109271 0.061175339
0.0905599 -0.164958 0.065799817
0.1024712 -0.15541799 0.071492501
0.058213096 -0.107789 0.019085597
0.1501891 -0.0623658 0.0181196
0.037790097 -0.139486 0.057119559
0.043972895 -0.165704 0.11069369
0.054765694 -0.051473804 0.038865399
0.093342595 -0.100394 0.079007
0.038646199 -0.067916103 0.033194497
0.141417 -0.108723 0.068935692
0.1349346 -0.065929703 0.006380897
0.1409886 -0.066160902 0.0093945004
0.1468396 -0.066208899 0.0140807
0.15367851 -0.066073701 0.019483399
0.1573422 -0.066030599 0.0233224
0.16003239 -0.066306204 0.027165499
0.1619048 -0.066876002 0.030390799
0.16380939 -0.066380501 0.034136198
0.074758798 -0.108472 0.074204601
0.16567729 -0.066808902 0.0391813
0.069834992 -0.12771399 0.0392382
0.11672946 -0.101563 0.080354899
0.071676396 -0.13511099 0.052421648
0.15108329 -0.067531504 0.016771797
0.073145002 -0.13522199 0.057115689
0.1058284 -0.095410004 0.082580201
0.1670348 -0.065397903 0.045126401
0.058856696 -0.130542 0.0243816
0.14727789 -0.072371401 0.0140757
0.1509212 -0.072549999 0.016974799
0.1543037 -0.0725412 0.0197093
0.1570354 -0.072466299 0.023090098
0.040005401 -0.137989 0.060835335
0.042556494 -0.059015304 0.05038023
0.1604363 -0.072699502 0.027397897
0.1617479 -0.072733499 0.029747598
0.16368869 -0.072550803 0.033615597
0.16544069 -0.072546504 0.039286301
0.037718795 -0.106295 0.011714499
0.035527401 -0.084739104 0.063451916
0.099729002 -0.15800299 0.079393499
0.0457284 -0.056850106 0.040958598
0.14674699 -0.078241698 0.014168598
0.1508722 -0.078257203 0.016985398
0.1544922 -0.078304701 0.019630298
0.15724809 -0.078126304 0.023360699
0.159927 -0.078094006 0.0273332
0.1619027 -0.077778205 0.030918499
0.12264737 -0.102302 0.079870999
0.049668498 -0.1355 0.0805576
0.045055397 -0.12787899 0.066533118
0.093303293 -0.104299 0.075990297
0.033007599 -0.103518 0.05589591
0.1057814 -0.164013 0.085980698
0.097843595 -0.14785199 0.068616509
0.108413 -0.154129 0.076304495
0.11002619 -0.159338 0.084776498
0.037124999 -0.133405 0.058133077
0.1403757 -0.025440501 0.062871747
0.1391274 -0.026333699 0.069177136
0.1384456 -0.026387999 0.073478997
0.1349535 -0.024773201 0.075493701
0.14212039 -0.027202601 0.025767598
0.159271 -0.0282866 0.05145292
0.1597549 -0.029854501 0.057386
0.1421892 -0.028061399 0.064463608
0.1379901 -0.0269066 0.076183498
0.13541479 -0.029244399 0.081286103
0.14080229 -0.090117998 0.081339195
0.1646004 -0.0309064 0.050725989
0.16356251 -0.031135501 0.055729561
0.1581381 -0.031113898 0.061479077
0.072119296 -0.12520699 0.051142219
0.1417274 -0.030428702 0.069644332
0.1406744 -0.030595599 0.074443698
0.1392578 -0.031168101 0.079507396
0.0314264 -0.102913 0.020414397
0.093207002 -0.096457005 0.081850097
0.1681487 -0.032858498 0.045440599
0.1721212 -0.036165498 0.051034499
0.16804379 -0.033064701 0.052754149
0.1660936 -0.033413097 0.057156429
0.14850029 -0.090484999 0.0768103
0.14694619 -0.0295833 0.063345775
0.029214397 -0.107838 0.053526688
0.057278998 -0.15756699 0.1070628
0.040046796 -0.096813001 0.0283162
0.17274369 -0.036212504 0.046044599
0.1704533 -0.036626302 0.057354867
0.087741897 -0.107324 0.073327295
0.14724749 -0.035596602 0.069270708
0.1053545 -0.084208399 0.0937341
0.078845501 -0.15721999 0.070818
0.047861494 -0.14611199 0.098410204
0.16568029 -0.037421703 0.063111916
0.1439407 -0.033325404 0.069698371
0.141084 -0.036258504 0.080530301
0.085147299 -0.025154902 0.0907351
0.050013296 -0.056306601 0.0340847
0.045292899 -0.139891 0.080145299
0.035455197 -0.12725 0.059256818
0.1749514 -0.038417801 0.043601796
0.14645649 -0.036626101 0.074103899
0.1425276 -0.034465499 0.075768299
0.15305379 -0.083813503 0.076053798
0.1726476 -0.059499204 0.057026938
0.17285439 -0.048133902 0.062779658
0.062853597 -0.057179905 0.023829497
0.054845594 -0.147167 0.11154909
0.070681095 -0.123682 0.058801319
0.087037995 -0.09595 0.080672897
0.055046201 -0.14565599 0.10563099
0.080954403 -0.14044499 0.063545361
0.1774365 -0.041617997 0.045481697
0.1774129 -0.042253099 0.050966229
0.17361119 -0.040096499 0.05795826
0.17122039 -0.042012103 0.06218354
0.1671226 -0.041581102 0.064812981
0.15344299 -0.037575997 0.0663817
0.12280933 -0.10829701 0.075820796
0.1052159 -0.091250002 0.083840802
0.057996299 -0.15742199 0.1127165
0.1759147 -0.042838201 0.056603167
0.1534801 -0.041850597 0.068252929
0.14878139 -0.0401171 0.075792596
0.14561969 -0.038554199 0.079054803
0.11136463 -0.108406 0.074611396
0.1051678 -0.107675 0.074700996
0.058486197 -0.135712 0.064812757
0.1432531 -0.11083 0.064561859
0.079846501 -0.024271799 0.0875149
0.15026569 -0.039686799 0.070728898
0.1520066 -0.10133401 0.067374066
0.0988997 -0.110417 0.070248201
0.099500895 -0.107125 0.074080296
0.11089737 -0.028360201 0.085776001
0.067485601 -0.10229 0.077103399
0.1402353 -0.113713 0.062470939
0.049825095 -0.024754101 0.061789099
0.11659734 -0.104844 0.077692799
0.1510248 -0.043713003 0.0740522
0.1468191 -0.0428482 0.080339
0.1052542 -0.110673 0.070585296
0.14709049 -0.096214004 0.074675597
0.16655409 -0.059799105 0.057714969
0.11699878 -0.090676002 0.083581403
0.044412598 -0.066211998 0.026531998
0.179738 -0.047299802 0.0448264
0.1795394 -0.047871701 0.051383279
0.17720909 -0.048052602 0.057464927
0.1057093 -0.11314701 0.067467436
0.14118309 -0.10230301 0.074083403
0.15474549 -0.046504602 0.070713997
0.14491379 -0.0725163 0.084587701
0.081777297 -0.104521 0.076177999
0.038051501 -0.066167206 0.039167799
0.093044296 -0.029225102 0.089394301
0.1577037 -0.049340099 0.068520129
0.1530295 -0.048630603 0.074728996
0.1418121 -0.041586503 0.083649203
0.099504694 -0.083590806 0.093167499
0.0327783 -0.103521 0.015933398
0.092846297 -0.025160799 0.0090732984
0.069617495 -0.096302003 0.079459801
0.1466611 -0.0485067 0.081913397
0.12975018 -0.084593199 0.088045098
0.099447593 -0.112391 0.067547388
0.053197898 -0.080919102 0.0774744
0.034384497 -0.084209904 0.061090939
0.028472595 -0.10444 0.039550796
0.029095195 -0.12170099 0.051908407
0.16048509 -0.047888599 0.065169796
0.14959639 -0.048047297 0.077827394
0.14669859 -0.084135905 0.080594897
0.052289598 -0.16286899 0.1172602
0.1342001 -0.108043 0.073917001
0.050182894 -0.059968702 0.027362499
0.18070969 -0.054880202 0.044836797
0.18093459 -0.053050503 0.046841498
0.1802205 -0.054371804 0.05135861
0.17740551 -0.053887703 0.057284269
0.0402207 -0.093858004 0.066600159
0.063613296 -0.12735899 0.064219981
0.15445119 -0.053826302 0.075201198
0.15071389 -0.0505317 0.078458898
0.1385684 -0.111789 0.067256242
0.074338302 -0.102414 0.076965801
0.1656177 -0.054484501 0.061621677
0.061573196 -0.0249015 0.015879799
0.045201801 -0.062367402 0.029148599
0.050062694 -0.052185401 0.044822197
0.067111 -0.12651899 0.061708208
0.1610205 -0.054488599 0.064767331
0.1588712 -0.0546166 0.069767967
0.17148709 -0.053727902 0.061747938
0.041270301 -0.064455099 0.033257898
0.0349719 -0.134269 0.05381918
0.1513094 -0.054487005 0.078893602
0.1467274 -0.054617099 0.082084201
0.15187369 -0.077743903 0.079270497
0.042754494 -0.133995 0.064709388
0.1332576 -0.10044301 0.078354098
0.11710656 -0.114723 0.068630323
0.085713193 -0.028582001 0.0114539
0.1400397 -0.0776233 0.086120501
0.1785453 -0.060535401 0.045302399
0.17814049 -0.059981905 0.051438008
0.176099 -0.059436001 0.055756409
0.1570479 -0.056518599 0.073263697
0.057438999 -0.16297099 0.12167209
0.0497282 -0.14493999 0.1055472
0.028374098 -0.12049901 0.050695188
0.049978994 -0.138229 0.092823103
0.047872595 -0.058018304 0.033224698
0.045466296 -0.14067 0.086430296
0.16310871 -0.061346099 0.062763996
0.1621659 -0.059252501 0.064661056
0.15454039 -0.059937805 0.076039098
0.085763201 -0.112912 0.06708584
0.16015179 -0.060932003 0.069511265
0.15707059 -0.060740799 0.073301002
0.1510856 -0.0602175 0.079290494
0.14830039 -0.060545303 0.082244694
0.11140977 -0.091699004 0.083789699
0.087176599 -0.030013898 0.089874998
0.0369412 -0.10047 0.0202666
0.1342724 -0.113237 0.068064846
0.043955699 -0.098637 0.021092199
0.046723798 -0.14493899 0.092139199
0.1360324 -0.078923203 0.088247702
0.029832296 -0.12136099 0.0205626
0.16558281 -0.066836499 0.057298217
0.068328299 -0.045396499 0.045093998
0.082345501 -0.11100201 0.070972398
0.16663179 -0.066288501 0.050893709
0.16373029 -0.066924103 0.06295564
0.1605043 -0.066678405 0.068491295
0.1569463 -0.066283599 0.072883695
0.15493509 -0.0666648 0.075594395
0.1519237 -0.066390403 0.0794186
0.1485208 -0.065807499 0.082523301
0.055314295 -0.058809005 0.025178097
0.11664427 -0.0886136 0.086928301
0.081639394 -0.090112001 0.081766099
0.049456701 -0.13989699 0.098731898
0.095212899 -0.16921499 0.078835599
0.12339058 -0.083702303 0.091836497
0.029009998 -0.132689 0.0373355
0.034891196 -0.092115 0.059608877
0.12299202 -0.114707 0.06864775
0.055054098 -0.157336 0.092994399
0.165975 -0.072724305 0.045328397
0.1661931 -0.072737604 0.051320888
0.1653461 -0.0726602 0.05730189
0.152594 -0.072231002 0.079059698
0.049224794 -0.132011 0.069011427
0.080330595 -0.035239004 0.0810351
0.046351194 -0.135787 0.073104799
0.053814501 -0.1679 0.1129018
0.050199397 -0.16922699 0.1117285
0.048032299 -0.16784799 0.10746039
0.1068183 -0.087424703 0.0090191998
0.043947101 -0.167651 0.1071457
0.032472596 -0.139451 0.050625239
0.035249598 -0.13953599 0.053476308
0.034615695 -0.088041201 0.060554195
0.049837999 -0.16294499 0.0993132
0.0530947 -0.16136 0.1004187
0.028423496 -0.104644 0.0491651
0.1511175 -0.10634501 0.06142056
0.029610001 -0.13407399 0.045744497
0.17337519 -0.062417299 0.051942267
0.1548115 -0.103636 0.05710033
0.15210471 -0.107128 0.056263279
0.064144596 -0.15012999 0.05773687
0.1484127 -0.11005 0.057339069
0.050658301 -0.141526 0.1043255
0.17091429 -0.063339598 0.048786901
0.1685286 -0.062635802 0.051432677
0.1451471 -0.112517 0.057451017
0.051583201 -0.160157 0.091953099
0.048971996 -0.161274 0.092588603
0.043436594 -0.14575699 0.068747617
0.17252059 -0.063467801 0.045112398
0.15552101 -0.103454 0.050911989
0.14083239 -0.115627 0.05672035
0.072327793 -0.12434801 0.040556598
0.045391694 -0.161229 0.092651598
0.1522027 -0.107616 0.0506358
0.1362523 -0.11758801 0.058672659
0.028533094 -0.13280499 0.0432777
0.1490775 -0.11047401 0.053131059
0.13359089 -0.11914001 0.056634538
0.033836499 -0.090458006 0.034281
0.054694898 -0.15594499 0.086984903
0.050150797 -0.15888999 0.086864799
0.041729994 -0.157473 0.092496
0.1415557 -0.084523402 0.082659401
0.1460612 -0.113082 0.051262338
0.12920342 -0.120081 0.057517529
0.049006596 -0.16051699 0.089524798
0.043979794 -0.15793799 0.087263599
0.1725229 -0.061665401 0.0388797
0.1407167 -0.11656599 0.050778549
0.045397498 -0.089803301 0.072645597
0.033566698 -0.079087399 0.034294501
0.15549409 -0.103435 0.044915199
0.1520737 -0.107698 0.045373797
0.12294754 -0.120714 0.057075568
0.094360895 -0.072395705 0.0080510974
0.053374194 -0.155416 0.082163095
0.039582297 -0.14309199 0.05511323
0.055437699 -0.025001699 0.044810798
0.0572064 -0.0252479 0.03988
0.055706799 -0.024938101 0.033539601
0.055757895 -0.029749701 0.033234097
0.054758094 -0.025220199 0.027564298
0.055679999 -0.025226099 0.021208599
0.033098601 -0.084408805 0.033913098
0.093623996 -0.090403005 0.083751902
0.049560599 -0.024828801 0.051113077
0.050362498 -0.029673001 0.0508136
0.052193597 -0.025728 0.046637997
0.042156696 -0.071973205 0.024538297
0.0390682 -0.072794199 0.0275
0.048768394 -0.028973999 0.057243578
0.058389898 -0.0279618 0.038065597
0.054622196 -0.030705402 0.0276585
0.058705099 -0.030107999 0.0161217
0.045110896 -0.072691604 0.021884598
0.035835899 -0.12376901 0.011343598
0.035089396 -0.084527105 0.030952098
0.037005998 -0.134712 0.0195935
0.093452096 -0.107619 0.073278099
0.052032195 -0.028322099 0.047609698
0.056074098 -0.0301146 0.044889897
0.061147299 -0.030780202 0.039786398
0.033037901 -0.125589 0.015941598
0.081173003 -0.029848399 0.017435998
0.094676197 -0.067343704 0.0098396987
0.12864855 -0.101878 0.079225197
0.057498597 -0.03424 0.0211384
0.031507 -0.115258 0.0138327
0.13507849 -0.091070004 0.082037196
0.038946696 -0.077632502 0.026537798
0.0563398 -0.033922099 0.027764499
0.0376243 -0.11585001 0.06459555
0.082544595 -0.032872997 0.017048799
0.088671997 -0.033286303 0.0098815002
0.035819799 -0.077501602 0.031418499
0.050990097 -0.032721601 0.057019129
0.050967701 -0.032713301 0.052608848
0.055799298 -0.034917802 0.051048368
0.056999497 -0.032749698 0.046699598
0.061922297 -0.034403197 0.045640398
0.032523997 -0.120712 0.014145598
0.036228798 -0.089933701 0.030660998
0.036280997 -0.072284602 0.032906801
0.099081695 -0.083477199 0.0087866001
0.0331017 -0.132651 0.021649498
0.061101597 -0.036765099 0.050100408
0.067085594 -0.036447503 0.044197597
0.031834595 -0.0782094 0.039080799
0.070592493 -0.155901 0.059268329
0.061388597 -0.037397802 0.0262939
0.063859999 -0.0417476 0.05164814
0.033476897 -0.138073 0.027872898
0.089150295 -0.0393297 0.017034598
0.0430898 -0.104994 0.0098811984
0.099093497 -0.0859579 0.012580499
0.069005296 -0.040963702 0.044920098
0.12842415 -0.078965701 0.092053697
0.095943898 -0.044438601 0.018302698
0.068960801 -0.042422302 0.0396787
0.067379199 -0.041827098 0.032978997
0.069597796 -0.049118601 0.0273109
0.072117895 -0.049069397 0.023686599
0.096087195 -0.048655301 0.017869197
0.044068597 -0.109228 0.066970065
0.1016819 -0.050456397 0.0093817972
0.0901559 -0.087253101 0.083571501
0.095807396 -0.052877299 0.017706398
0.097600199 -0.054669999 0.014020998
0.10071009 -0.054148301 0.0096071996
0.093989097 -0.16292499 0.079145297
0.093466893 -0.151574 0.074431799
0.064144403 -0.14571999 0.061210159
0.060097199 -0.12646599 0.066445597
0.056461997 -0.061664999 0.0220537
0.099958301 -0.076986201 0.097887598
0.064282402 -0.095745005 0.078624099
0.066930898 -0.13391399 0.061008979
0.094331197 -0.060463704 0.016106497
0.096442297 -0.059377402 0.012979697
0.067424096 -0.11724701 0.065215245
0.041214101 -0.12185801 0.065459132
0.061978798 -0.11008801 0.070274696
0.080370598 -0.100441 0.078625798
0.098971799 -0.163113 0.0814922
0.065240696 -0.046328902 0.0492853
0.076446593 -0.024575802 0.084752001
0.075016692 -0.024692101 0.080748297
0.075642392 -0.029040301 0.081749097
0.073714495 -0.024503699 0.075311199
0.073380992 -0.029645702 0.074145697
0.11095077 -0.024382601 0.084642902
0.12311748 -0.090303004 0.082792901
0.050919101 -0.029221701 0.06181724
0.027971096 -0.12104101 0.0337651
0.076585993 -0.027248701 0.085306399
0.1480974 -0.071829401 0.082093097
0.052297994 -0.159446 0.1160134
0.028462298 -0.119674 0.028763499
0.053691395 -0.031116201 0.064431489
0.046874501 -0.14193499 0.096887901
0.080985501 -0.029488901 0.087597996
0.056262799 -0.033782698 0.062645331
0.059457298 -0.032556497 0.035302497
0.034239694 -0.120763 0.060714461
0.067952797 -0.030357299 0.070741102
0.063147798 -0.033450402 0.037558697
0.076760992 -0.032934204 0.079316601
0.0761213 -0.034132197 0.074422196
0.074249499 -0.036486 0.070569396
0.055406198 -0.035689697 0.056869179
0.067402199 -0.036484301 0.039288398
0.062742196 -0.035948902 0.033112999
0.058103796 -0.034364797 0.031318698
0.086853296 -0.035317898 0.0867282
0.082233101 -0.034354702 0.085209899
0.087907799 -0.10442501 0.076230399
0.062197298 -0.037066899 0.063267395
0.028504595 -0.13799399 0.039486296
0.079993293 -0.037153602 0.075104199
0.12454895 -0.111869 0.072479695
0.1351282 -0.102708 0.076549597
0.067421302 -0.036329098 0.06775444
0.060072396 -0.0375112 0.057328828
0.047354199 -0.137126 0.081862494
0.045907594 -0.158686 0.1040312
0.062505998 -0.041542597 0.056805868
0.0663082 -0.038304798 0.033505499
0.1052844 -0.104453 0.077225499
0.086480901 -0.038042404 0.081245996
0.139461 -0.082433306 0.084434398
0.1369402 -0.085206501 0.083827801
0.1401047 -0.094156004 0.0788197
0.088035792 -0.041665703 0.075250901
0.0831552 -0.038825601 0.073107101
0.080873497 -0.041890897 0.070946701
0.11107779 -0.101576 0.0802733
0.068434097 -0.041515797 0.067513928
0.064297199 -0.042939998 0.062685981
0.090657897 -0.042639799 0.081399098
0.088554695 -0.039635099 0.079353899
0.1522381 -0.09409 0.072848201
0.093897499 -0.042580098 0.086466901
0.061696898 -0.106733 0.073003799
0.105149 -0.101599 0.079148397
0.067865193 -0.108189 0.073745102
0.068250701 -0.0482798 0.06896954
0.063801795 -0.048246197 0.063106447
0.061201096 -0.048611902 0.057232659
0.061443597 -0.047841601 0.051424038
0.139026 -0.10614 0.073168598
0.098810695 -0.101662 0.0790883
0.096082397 -0.046114899 0.090057001
0.092739701 -0.048547998 0.087477997
0.090423398 -0.048279904 0.081755102
0.087907195 -0.0489382 0.0747618
0.1273938 -0.111789 0.072655499
0.094805397 -0.049522698 0.090863198
0.089283295 -0.050130002 0.0794181
0.054988697 -0.053217404 0.062930949
0.050352097 -0.055751003 0.061981007
0.050007395 -0.053501301 0.056258939
0.040056497 -0.062481202 0.040848598
0.0523156 -0.150922 0.1159942
0.098456502 -0.0536559 0.0950431
0.094167501 -0.054825202 0.092208698
0.091017999 -0.0536438 0.0874997
0.089577399 -0.0529368 0.082426101
0.088095799 -0.055181906 0.080194198
0.086725898 -0.053633705 0.076003201
0.099445298 -0.024111001 0.086401001
0.045663297 -0.055828601 0.051668741
0.136103 -0.11074501 0.070384301
0.042978801 -0.060054399 0.056833688
0.0451781 -0.056930006 0.055486549
0.089368299 -0.055752404 0.085452996
0.048856698 -0.058707803 0.063902907
0.043737501 -0.061631605 0.062959179
0.039779596 -0.061393499 0.050087329
0.028658696 -0.13814299 0.043854199
0.092626393 -0.060005203 0.093532294
0.0899726 -0.059207305 0.088967696
0.088372298 -0.061121799 0.0866514
0.0869371 -0.059976503 0.081274301
0.084635794 -0.060589604 0.077709697
0.061299596 -0.029104399 0.069002703
0.050230399 -0.060385704 0.068086661
0.039516799 -0.062646203 0.05527534
0.13516159 -0.116104 0.06266395
0.045427896 -0.062883005 0.067570686
0.037609197 -0.066277005 0.057298828
0.028716899 -0.123698 0.0457839
0.12371049 -0.086881705 0.088093102
0.043860801 -0.066625804 0.068594866
0.041525096 -0.064882703 0.065236241
0.039321899 -0.0671902 0.062908031
0.036537796 -0.0665209 0.05072888
0.12983826 -0.10402 0.077861197
0.12210649 -0.088156499 0.086124398
0.091491498 -0.065757506 0.094811797
0.086912602 -0.066124901 0.087066099
0.085343197 -0.065790601 0.0815029
0.14311039 -0.079280704 0.084023595
0.088786796 -0.067135699 0.092041597
0.049957499 -0.066363305 0.074146397
0.033886299 -0.0714707 0.050918568
0.033680998 -0.071520001 0.045006398
0.099195793 -0.086318202 0.087056294
0.098892197 -0.104391 0.0771285
0.045383796 -0.072852902 0.073932499
0.042704999 -0.071216002 0.070056796
0.039987296 -0.072160505 0.067222372
0.037366599 -0.072086804 0.063246161
0.035533294 -0.071766905 0.05750427
0.0339555 -0.0732591 0.039674498
0.035183996 -0.0716746 0.038015097
0.1745549 -0.056169204 0.059234351
0.086839601 -0.072836906 0.087049298
0.084197193 -0.072904699 0.0827723
0.033805795 -0.074250504 0.05701435
0.091292799 -0.072726704 0.094953701
0.088839896 -0.072238699 0.091562703
0.034596995 -0.13186499 0.054833528
0.041483097 -0.078562804 0.070760697
0.039295398 -0.078767605 0.06826584
0.035602801 -0.077874303 0.063499227
0.0344292 -0.078207299 0.061099458
0.032384299 -0.078128599 0.056308158
0.031466097 -0.0776942 0.051028419
0.031420894 -0.077721305 0.045038398
0.055614598 -0.024857601 0.067750849
0.068706796 -0.024226999 0.072901301
0.093316093 -0.035855599 0.087274
0.1053632 -0.0881541 0.086431801
0.098653197 -0.090769999 0.083958797
0.14093199 -0.072595403 0.086734697
0.12759225 -0.0828541 0.090923697
0.1055522 -0.077927403 0.098029703
0.11140276 -0.10451 0.0773132
0.1464818 -0.099935003 0.072618201
0.10541449 -0.0285179 0.0867991
0.086994596 -0.0237044 0.087299101
0.093212798 -0.0240475 0.087190099
0.11150843 -0.088585906 0.0870535
0.1089046 -0.110824 0.072013497
0.15673789 -0.0825992 0.072988801
0.062836498 -0.033575498 0.067176066
0.10066719 -0.087925099 0.084792003
0.099620193 -0.0285467 0.088308796
0.061231896 -0.0237133 0.06871891
0.068208098 -0.090654999 0.081325799
0.12702626 -0.087841801 0.0846055
0.10511079 -0.116068 0.062521257
0.15075779 -0.082446001 0.078851901
0.14110489 -0.047812603 0.086611599
0.10307629 -0.087048098 0.087871797
0.1660004 -0.0481866 0.065085888
0.11055668 -0.072227105 0.098106697
0.0564119 -0.029212398 0.067177661
0.12864226 -0.028637102 0.083305299
0.1452935 -0.066955701 0.0848407
0.097034693 -0.079515904 0.096198998
0.067620896 -0.024119301 0.069946527
0.14116929 -0.0543935 0.086857796
0.068413302 -0.12164 0.062809199
0.1050331 -0.024552898 0.085427299
0.1038833 -0.117288 0.058307089
0.0730768 -0.11851501 0.061639648
0.11038619 -0.117158 0.063788086
0.1125434 -0.11856201 0.061307508
0.11695506 -0.11890901 0.061748568
0.1228379 -0.119022 0.06194723
0.12903363 -0.118674 0.061650127
0.063839301 -0.121588 0.065714285
0.074244902 -0.117167 0.064849615
0.11695254 -0.11767801 0.064560041
0.12303811 -0.11768001 0.06442
0.1301526 -0.116812 0.06466464
0.064674094 -0.116836 0.066013075
0.12799473 -0.024846001 0.0806913
0.12271789 -0.024219101 0.080473699
0.11704196 -0.024241799 0.081622198
0.13346739 -0.0253221 0.079696096
0.12440963 -0.0283063 0.084077597
0.12140752 -0.028347401 0.084614694
0.11690823 -0.028387701 0.085186601
0.062497698 -0.090661004 0.079521097
0.071426094 -0.14316 0.065472782
0.055342697 -0.023483099 0.062960088
0.0559204 -0.090426005 0.077393599
0.049558498 -0.090139002 0.074603699
0.087362394 -0.145806 0.069498837
0.1536094 -0.027362401 0.057265878
0.1520943 -0.0297885 0.061951358
0.13585019 -0.034960203 0.083721198
0.12889467 -0.032644898 0.084265903
0.12312499 -0.035272099 0.086587995
0.11701655 -0.034685999 0.087222196
0.11087654 -0.0348524 0.088067099
0.1054649 -0.034326598 0.087777101
0.099077702 -0.036091298 0.0881918
0.15405199 -0.0348434 0.065401129
0.088735402 -0.14825699 0.072229996
0.1601509 -0.034898102 0.06354586
0.1343253 -0.037348397 0.0851513
0.12937889 -0.036652602 0.086168498
0.043346897 -0.059542306 0.039201796
0.1287246 -0.041791603 0.0891615
0.12299372 -0.040692702 0.089855701
0.11835434 -0.038943604 0.090414397
0.11678603 -0.042259604 0.0914075
0.11084659 -0.040921703 0.091868103
0.1053982 -0.041375197 0.091904499
0.1038442 -0.038854301 0.090376303
0.099415697 -0.0408011 0.089643501
0.1605252 -0.041885503 0.066544525
0.13493089 -0.042077199 0.0873859
0.16188399 -0.039086804 0.066043667
0.139962 -0.042990804 0.086121902
0.1001499 -0.043423399 0.091226697
0.086372696 -0.042718701 0.070624299
0.073888794 -0.042915799 0.070166402
0.099599995 -0.15187499 0.074657999
0.16499239 -0.0430898 0.066148907
0.12733679 -0.0446532 0.090503797
0.12283568 -0.0446532 0.090746798
0.11697755 -0.047700003 0.093147695
0.11085331 -0.0476676 0.094116494
0.10483 -0.048198998 0.094987698
0.0997293 -0.048103102 0.093368098
0.1340844 -0.047964998 0.088982999
0.1303301 -0.048855297 0.089947201
0.12732823 -0.048889801 0.090611696
0.1227369 -0.049015097 0.092192799
0.0862813 -0.047974199 0.071582399
0.080928892 -0.048246697 0.071503296
0.0739526 -0.047912404 0.0715174
0.1103856 -0.054216802 0.095856398
0.075842999 -0.049982503 0.072387695
0.135251 -0.054580301 0.089566998
0.12839293 -0.054921404 0.091695696
0.12325858 -0.054352902 0.093243897
0.11638743 -0.054586105 0.094907001
0.1055291 -0.055006005 0.097160295
0.083337694 -0.050678998 0.072279096
0.067359596 -0.053640202 0.0701297
0.081813395 -0.054891899 0.074207298
0.074750498 -0.054785602 0.073981896
0.060073797 -0.052296601 0.064292848
0.042135894 -0.107463 0.06576778
0.1012553 -0.056415103 0.097477898
0.062238399 -0.054488406 0.06779097
0.057422198 -0.055535302 0.067411311
0.14510879 -0.0610945 0.084860399
0.14145699 -0.060272902 0.087341502
0.1366747 -0.060158603 0.089720301
0.1332745 -0.060264304 0.0912074
0.12867525 -0.060350902 0.092427798
0.12229643 -0.060869403 0.094312295
0.11693539 -0.060381003 0.095356494
0.11226321 -0.059174903 0.0962051
0.1098012 -0.061512202 0.097377799
0.1052546 -0.060442902 0.098294303
0.099601597 -0.0606516 0.098158002
0.0959033 -0.059341803 0.096252099
0.059482496 -0.057359703 0.070825897
0.081270695 -0.0606355 0.076845698
0.074865296 -0.060506403 0.0764504
0.067656502 -0.059786201 0.074598402
0.060848497 -0.0602891 0.074720301
0.054748498 -0.058849201 0.069939822
0.095238596 -0.061977699 0.096831694
0.056211598 -0.061269701 0.0738535
0.14114539 -0.0669268 0.086877197
0.1362128 -0.0665268 0.089378402
0.1333247 -0.066019602 0.090671495
0.12907694 -0.066038005 0.093038201
0.12245085 -0.066085704 0.095161498
0.11823679 -0.0662288 0.096068799
0.11523513 -0.066286005 0.096974194
0.11037008 -0.066593602 0.097865097
0.1055519 -0.066411801 0.098577499
0.098546997 -0.066357404 0.098667994
0.095022999 -0.066248402 0.097451799
0.082254693 -0.066616401 0.0789124
0.0802605 -0.0646623 0.078025497
0.076257698 -0.066590503 0.078792199
0.073362298 -0.064484499 0.077366799
0.068137698 -0.0645812 0.077508397
0.061013397 -0.064536802 0.077659994
0.055591896 -0.065627903 0.076752901
0.047870494 -0.064025603 0.070571899
0.058476698 -0.025413198 0.016119
0.067502901 -0.066987202 0.078953601
0.061251797 -0.066744499 0.0787462
0.133102 -0.070995301 0.090791702
0.12892295 -0.072065204 0.092547804
0.1222917 -0.072029702 0.0949279
0.11822163 -0.070480503 0.096447095
0.11620316 -0.072419301 0.097328
0.10570119 -0.072038405 0.0990211
0.099229202 -0.072386205 0.0987335
0.095191099 -0.071896799 0.097703099
0.046418101 -0.067702599 0.072202295
0.135425 -0.073128805 0.0895207
0.081600599 -0.071791902 0.080959603
0.074881598 -0.071552604 0.080433995
0.068186 -0.0718472 0.081134796
0.061631098 -0.071272403 0.0802975
0.056051001 -0.072768003 0.078893498
0.053729095 -0.070064999 0.077783197
0.050440595 -0.073059306 0.077058196
0.11518186 -0.076841004 0.096795097
0.095179394 -0.076752402 0.096763894
0.13320459 -0.077160202 0.090547301
0.083916299 -0.076707602 0.083791003
0.11122157 -0.024055602 0.080492698
0.099287197 -0.024238201 0.080872796
0.1052085 -0.0241096 0.080761597
0.093423299 -0.0242963 0.081098899
0.12282684 -0.025105299 0.075813599
0.12885967 -0.024471002 0.074748695
0.080915198 -0.023722799 0.0802617
0.087334394 -0.0245334 0.080187395
0.11775465 -0.0251539 0.076623395
