ply
format ascii 1.0
comment PCL generated
element vertex 1373
property float x
property float y
property float z
element camera 0
property float view_px
property float view_py
property float view_pz
property float x_axisx
property float x_axisy
property float x_axisz
property float y_axisx
property float y_axisy
property float y_axisz
property float z_axisx
property float z_axisy
property float z_axisz
property float focal
property float scalex
property float scaley
property float centerx
property float centery
property int viewportx
property int viewporty
property float k1
property float k2
end_header
0.025265224 0.13097227 0.2400938
0.0084407888 0.16394514 0.17237887
0.010229766 0.13345394 0.20341837
-0.0065927021 0.077894077 0.19911197
0.0056257807 0.17521632 0.14997074
-0.010099664 0.0962639 0.22801943
-0.0030369274 0.16168761 0.11421487
-0.0065697432 0.092341073 0.22416332
-0.042970296 0.16530988 0.21162665
0.017804973 0.1332237 0.24302234
0.027382873 0.14606565 0.18120733
-0.058905531 0.1671513 0.19871911
-0.045285691 0.15221505 0.20820558
-0.0061307512 0.1360193 0.18870562
0.011810269 0.17129457 0.16332686
-0.0027275272 0.13374016 0.20215456
-0.010129478 0.13700706 0.18095478
0.01600223 0.17328563 0.15783188
0.015558776 0.17530382 0.15323916
-0.031791981 0.15674277 0.2137261
-0.013200726 0.10040163 0.23049027
0.0017373003 0.140268 0.21908873
0.017590918 0.17005964 0.11770348
0.0074453764 0.1675151 0.11541328
0.026628189 0.16995378 0.1196383
-0.014743503 0.14156935 0.22560115
-0.03269754 0.15774573 0.19385765
0.013554759 0.13888103 0.23697342
0.017655723 0.13651857 0.23828436
0.036023561 0.075263925 0.18666227
0.03020389 0.12780084 0.23790991
-0.048915546 0.12821765 0.22240119
-0.025669593 0.12885718 0.23160899
0.025409989 0.10446835 0.23958981
-0.015138324 0.13838753 0.23032288
0.014666177 0.17708966 0.1429583
-0.0048709027 0.15402329 0.10923586
-0.047564108 0.12792654 0.22945897
0.016654465 0.15911564 0.17642577
0.041406624 0.16686361 0.13614984
-0.043693732 0.16279112 0.18695363
-0.031030353 0.15295744 0.21848123
-0.069660231 0.12092583 0.23214331
0.0013613962 0.086602598 0.21597095
0.012725059 0.1750176 0.12976392
0.033264514 0.17119676 0.13293317
0.013899792 0.13516778 0.24296248
-0.035092991 0.158319 0.21569097
-0.0047867522 0.091004081 0.2172247
0.02456193 0.16561157 0.11189577
0.0051893927 0.1736431 0.15584762
0.071195543 0.11289403 0.12927723
0.069525316 0.11658271 0.12513003
-0.011207223 0.14713076 0.17339543
-0.018274147 0.14361858 0.22045304
-0.046728123 0.16311413 0.21147716
-0.00067196786 0.16728097 0.12014434
0.015924543 0.10602912 0.24082541
0.018551622 0.16341978 0.10903412
-0.047918987 0.16809279 0.20814241
0.014063057 0.13690856 0.24079022
0.018282492 0.13350171 0.21899253
0.025608992 0.1686326 0.11647734
-0.0021952763 0.15662801 0.1739907
-0.0018261001 0.15226921 0.177478
-0.019930642 0.13140963 0.23393556
0.010855954 0.15893784 0.17706475
0.0018028803 0.14283472 0.23548263
0.0017222501 0.13895893 0.24014775
0.019915491 0.17483345 0.1507968
-0.039099518 0.1581372 0.21572393
-0.038797375 0.15339927 0.21770228
0.069888845 0.076302782 0.17133713
0.069961309 0.080723338 0.16727507
-0.04327153 0.12253805 0.23332316
-0.043657731 0.12816519 0.22939944
0.0097033121 0.17206439 0.12346992
-0.0016242042 0.15790655 0.10954096
-0.027314331 0.15046066 0.21887898
-0.028252568 0.1525282 0.21179804
0.068714723 0.087909169 0.15549058
-0.052286167 0.12720999 0.2299284
0.049301598 0.1317777 0.17502125
-0.011119861 0.10755879 0.23721826
0.0099373907 0.15485954 0.17971501
-0.047342148 0.15778926 0.21066083
0.010240313 0.078404412 0.21274401
-0.035657588 0.12829852 0.22359639
-0.025579128 0.11313706 0.21816328
-0.052137773 0.12366204 0.23295346
0.018566962 0.17695475 0.14065333
0.02371184 0.17231318 0.12387773
0.029434953 0.14990988 0.17694938
0.036303055 0.12349301 0.22631501
0.027236186 0.16899495 0.15348905
-0.035140481 0.16034842 0.21344173
-0.017661508 0.1036941 0.20203599
-0.073657662 0.11684769 0.22306034
-0.0012846254 0.11715637 0.24882556
0.028059557 0.16567829 0.1584866
-0.01213298 0.15161458 0.11609959
0.00071090087 0.16515061 0.11528644
0.02971914 0.162505 0.16366562
0.0088882521 0.1413551 0.23477358
0.028202515 0.13049436 0.23299029
-0.0066428781 0.14971149 0.17574525
-0.0078695938 0.16264115 0.16391587
0.0055061616 0.14378129 0.23358683
0.01191112 0.17588529 0.13318136
0.06475091 0.12434669 0.10776187
0.04655182 0.16074874 0.14720252
0.029420897 0.1547814 0.17319876
0.017757524 0.17169335 0.12111352
0.011954147 0.17012373 0.11881346
-0.010305867 0.093402304 0.21064708
-0.023301128 0.10917135 0.22473614
-0.020683926 0.13842198 0.13601096
0.0031474158 0.17038548 0.16244248
0.0024532937 0.16669771 0.16720554
-0.0028126463 0.16081065 0.16993713
0.0051679835 0.13618106 0.19664937
0.011238318 0.14889538 0.18305661
-0.019776154 0.13539805 0.22896904
0.0022793375 0.13534835 0.20532438
0.066721611 0.082034834 0.16955054
-0.0078589581 0.1584141 0.1680738
0.0039790757 0.1138626 0.24385314
-0.019759979 0.14336011 0.163158
0.069446549 0.083034806 0.16111299
-0.089608014 0.12474476 0.22069053
0.00599299 0.13958278 0.19138011
0.0039854012 0.12880906 0.2478653
0.015956018 0.080473647 0.21570751
-0.014701668 0.13038529 0.18360427
-0.0013109669 0.086878337 0.2145049
-0.020348284 0.14654532 0.21549729
0.011175193 0.17571715 0.15178947
0.019108111 0.1433942 0.18585983
0.019820992 0.14783821 0.18323928
0.023849204 0.14862013 0.18143457
0.035922255 0.11953291 0.23098522
0.069332451 0.11927394 0.11973701
-0.023245659 0.14436153 0.22220156
-0.024722155 0.1493884 0.21789896
-0.0096993037 0.14362696 0.2268264
0.0086768232 0.17616718 0.13767745
-0.005001381 0.16334809 0.1188948
-0.02104615 0.10819008 0.22802439
0.033498522 0.12371042 0.23484695
-0.010848429 0.15904278 0.11983377
0.01335128 0.1613459 0.10687084
-0.010991938 0.081337199 0.19132078
-0.0086351112 0.078435555 0.19577333
-0.020108294 0.13960528 0.22497706
-0.024995212 0.13195087 0.22518115
0.033473369 0.097647309 0.21466529
-0.015593965 0.10595291 0.23354518
0.065806128 0.085972995 0.162838
0.062463753 0.090139017 0.15937746
-0.043110993 0.12865782 0.22460945
0.07480894 0.094721578 0.15237305
0.071408778 0.10239869 0.15217027
0.076516584 0.099419571 0.1500681
0.071748212 0.10652798 0.14879194
0.071414798 0.10966303 0.14195874
0.071077079 0.11128158 0.13745317
0.06885685 0.11506828 0.13236529
0.067439184 0.12439368 0.12313984
0.02732864 0.17139864 0.14834881
0.0030476153 0.15382385 0.17885131
-0.0038374104 0.13980427 0.2173288
-0.082570896 0.12433099 0.21846133
-0.046889331 0.15572864 0.20978498
0.012815624 0.13585064 0.21386068
0.022346925 0.13215476 0.22825441
0.014015358 0.099497631 0.23507427
0.0081856176 0.15869409 0.10531538
0.029737089 0.15892969 0.16861087
-0.038245987 0.14468294 0.21166497
-0.040457662 0.14644754 0.20674379
0.048680715 0.097922355 0.1814954
-0.016944107 0.098550811 0.16399521
0.021455009 0.13450159 0.23426895
-0.078413308 0.11654299 0.21991004
0.017186802 0.16368061 0.1718193
-0.011509571 0.13057584 0.19286583
0.0097461343 0.13560003 0.24338536
-0.038257394 0.12795366 0.23019435
0.065583475 0.077965587 0.17362176
-0.01051623 0.14176604 0.17726222
0.068296023 0.11395779 0.13798963
0.068180084 0.11980313 0.12786937
0.0085277967 0.131597 0.2464024
0.029115953 0.12366657 0.24206991
-0.021346714 0.1342575 0.14035355
-0.0062700547 0.074780151 0.192866
-0.0086776502 0.077245928 0.18725976
-0.038468901 0.12876016 0.22657315
0.05215707 0.13471472 0.1739333
0.044283602 0.15324029 0.16352057
0.037184142 0.15502749 0.10222439
0.061417289 0.083086461 0.16959685
0.062015787 0.086401135 0.16506281
-0.030734424 0.12844747 0.22929233
-0.0059195124 0.12031895 0.24939586
-0.0049853921 0.13816984 0.23895615
-0.0044097863 0.13377151 0.24337837
0.044451758 0.14971152 0.1673924
-0.011562936 0.16442278 0.12996466
0.02008494 0.10159869 0.23701061
0.067575872 0.096246354 0.15525736
0.023320872 0.13671429 0.19007581
0.023388803 0.12535715 0.20449989
0.0063082799 0.15181622 0.10152265
0.0052224398 0.14862671 0.18245178
0.053663537 0.13154945 0.098845467
-0.034173656 0.14097066 0.20873499
-0.052231912 0.16039151 0.20300055
-0.01340678 0.13720801 0.11135083
-0.017488021 0.10198514 0.15707543
-0.012766581 0.11706687 0.24694547
0.020557787 0.17450529 0.12784939
0.0078217946 0.17092699 0.16369626
-0.020147685 0.10525508 0.15437803
0.068257555 0.10217182 0.15353319
0.067810103 0.11075586 0.14378417
0.068839833 0.11832209 0.13445014
0.069600128 0.12333226 0.12983291
0.069033936 0.12514412 0.1265004
0.0035803653 0.14454444 0.22847936
0.024264578 0.13299532 0.23693849
-0.0041318908 0.077059239 0.20174468
0.053691313 0.13668361 0.096236058
-0.050866622 0.17098278 0.20779197
-0.051157381 0.17252463 0.20611908
0.0082775168 0.16786173 0.16789514
-0.027867433 0.12780984 0.22024304
0.060931113 0.078123942 0.17402786
0.062309723 0.094386704 0.1566563
0.067730963 0.10833592 0.14761633
0.068751447 0.11897427 0.14218314
0.069996655 0.12242989 0.13786425
0.069873422 0.12637311 0.13366032
0.068501309 0.12973964 0.12832618
0.0051721148 0.16212007 0.10935887
0.0072966181 0.092438228 0.22450593
0.0064978786 0.12125863 0.24856824
0.020965064 0.16843955 0.11506882
0.01367854 0.16871181 0.11584398
-0.02937467 0.12909377 0.22456445
0.057622336 0.08353015 0.16888148
0.057461679 0.097852275 0.15660881
-0.00052940473 0.13613071 0.19475007
0.039497238 0.14860258 0.16779032
-0.0025985837 0.13392934 0.19725394
-0.033881504 0.12753075 0.23122637
0.063629806 0.10327403 0.15268493
0.063472062 0.1083833 0.14975999
0.066037744 0.11094259 0.14637284
0.067006126 0.11471044 0.14678447
-0.032760601 0.1257911 0.21858436
-0.0069287904 0.096749373 0.231056
-0.02350628 0.10273662 0.15085977
-0.082171932 0.11890306 0.22368425
-0.024453502 0.12590863 0.21379802
0.0065665916 0.10013711 0.2384719
-0.0085617006 0.16523132 0.1259106
0.0045139901 0.13756755 0.21393104
0.020627385 0.15851709 0.17584832
-0.050306898 0.1236518 0.2156007
0.015008762 0.092545584 0.22152726
0.0090065077 0.11690673 0.24626963
0.0060711168 0.14293332 0.18620518
0.052877337 0.13884458 0.10313077
0.052309662 0.1421693 0.098175421
0.051346861 0.14605658 0.095166326
0.019080143 0.1339108 0.19654197
-0.061603587 0.11728965 0.21282239
0.035312086 0.17022589 0.13772264
-0.053286497 0.16516703 0.20586142
0.036136899 0.0984409 0.21292832
0.0030630417 0.17242022 0.15787773
0.039191548 0.14371908 0.17179421
0.003037069 0.15807891 0.17587447
0.053149566 0.084176287 0.16879013
0.056748118 0.08959417 0.16669424
0.057743475 0.09370397 0.16341183
0.057711706 0.10257582 0.15270999
0.00211123 0.15913668 0.10801927
0.032999437 0.10920096 0.23043543
-0.0011472143 0.092625707 0.22916886
0.020578146 0.16176352 0.17285851
-0.002314698 0.17081505 0.15535924
-0.039375488 0.1635064 0.18910138
-0.027774725 0.11796032 0.23191358
-0.013831187 0.096510462 0.22520928
0.010819696 0.17405316 0.15725261
0.0097509101 0.13667297 0.19671427
0.013947804 0.136205 0.1965093
0.014419813 0.13973138 0.1909325
0.015847515 0.15421148 0.18011919
0.024646848 0.1254217 0.212593
-0.053796258 0.12699491 0.21961288
0.017703477 0.12841359 0.24581634
0.029926816 0.17218485 0.12995821
0.020790495 0.17632955 0.13851118
0.018528428 0.13837042 0.19120231
0.00041066483 0.14549053 0.23119463
0.054535411 0.088538632 0.16837928
-0.025857013 0.1368424 0.2231404
0.060996898 0.11248262 0.15321566
0.031420548 0.11892199 0.23905721
0.023334203 0.1287 0.20021729
-0.063860789 0.17166781 0.1893115
-0.0094738379 0.14516544 0.10767902
0.012723517 0.08495377 0.2189672
0.0065089129 0.17600837 0.14536673
0.007146731 0.082928091 0.21623932
-0.0049507469 0.14148828 0.23481873
-0.024803218 0.12380998 0.23545969
-0.0043724813 0.14522156 0.22842434
-0.00022719428 0.1418393 0.18513027
-0.0098018944 0.13225478 0.24193975
-0.067883417 0.11668582 0.22881514
-0.0090616681 0.082920901 0.20160332
0.065483488 0.11923233 0.15137246
0.067553475 0.1221839 0.14711048
0.068157136 0.12696697 0.14237046
0.068206295 0.1303094 0.1366787
0.066862285 0.13448209 0.13257912
0.001224082 0.14744252 0.10134084
0.048806258 0.1458742 0.10204381
0.022313707 0.13199605 0.24155074
-0.018463019 0.12535593 0.17878431
0.054215003 0.13734359 0.17189178
-0.037514154 0.12428282 0.2331762
-0.0098657832 0.14047597 0.23267396
0.0013738014 0.134911 0.24399602
0.0073754676 0.15937874 0.17644191
-0.01463211 0.15883473 0.12770051
0.053902347 0.095188096 0.17005372
0.055841003 0.097809806 0.16620485
0.054317247 0.10171945 0.16099049
0.053833455 0.10595071 0.155772
0.0097982734 0.14496246 0.18535444
-0.0093259476 0.12724885 0.24576963
-0.012058742 0.15133259 0.16978949
-0.00054048002 0.17302263 0.14934771
-0.043945294 0.1564066 0.21405011
0.023106189 0.14069258 0.1864191
0.015559703 0.15024842 0.18260585
-0.075404391 0.11308973 0.21644194
-0.012202516 0.14201003 0.2178787
0.020153465 0.15303102 0.18007809
0.048112236 0.15072159 0.09671168
0.02853406 0.071630277 0.19190589
-0.059557404 0.1685555 0.18532249
-0.05549318 0.17311916 0.20435083
0.039048634 0.093919367 0.21013334
0.033513576 0.074109957 0.16396925
5.9314072e-05 0.14598615 0.18240726
-0.0037891082 0.12915984 0.24673545
-0.014752712 0.13775671 0.17468369
-0.014517102 0.13342674 0.1782538
-0.050461259 0.16278097 0.20858577
0.068015255 0.12604709 0.14681894
0.067992806 0.13044071 0.14213803
0.068101622 0.13285765 0.13908607
0.020106502 0.12796675 0.20625606
-0.0028746463 0.16498196 0.16575095
0.015963182 0.16699453 0.11316626
0.001453504 0.09086442 0.2224662
-0.03489713 0.11463956 0.21939962
0.03077057 0.092193864 0.21579251
0.013468243 0.1433751 0.18676829
-0.0030395202 0.14447531 0.22300562
-0.0064222477 0.081618726 0.20422584
0.021066938 0.16961336 0.16154787
0.024559848 0.16493598 0.16592658
0.0086385049 0.096341252 0.23431897
0.023790786 0.13221589 0.19571698
-0.014542785 0.12525791 0.24369553
-0.056169096 0.12009251 0.21374537
-0.020088483 0.11950566 0.1919167
-0.034027334 0.16080007 0.19495314
-0.076744527 0.12458495 0.22146437
-0.015065324 0.13009077 0.23997435
-0.047485445 0.11726266 0.2138553
0.038591243 0.080039553 0.17439616
0.010690127 0.13951457 0.19211811
-0.018737409 0.12218802 0.24169305
0.0086430572 0.13669978 0.21123683
-0.00805768 0.16595419 0.15899922
0.064010352 0.12323348 0.15488139
0.065715134 0.12885478 0.15076753
0.066741146 0.13192792 0.14620386
0.066685319 0.13614532 0.14168289
0.065345317 0.13917226 0.13840248
0.024281438 0.15288918 0.17824233
0.024798527 0.16138117 0.17058399
0.024491306 0.15737686 0.17460054
0.03930882 0.081589937 0.16928819
0.018001433 0.087913647 0.22024503
-0.019537386 0.10658722 0.16304474
0.045991533 0.14895287 0.10076012
0.046134263 0.15327218 0.091550857
-0.001922559 0.15124206 0.10417698
0.042460244 0.084139541 0.17778005
0.043591924 0.085310094 0.17207611
-0.0048891865 0.13492805 0.20677868
0.044531751 0.15661716 0.15845728
0.02032188 0.17238575 0.1562489
0.051720839 0.098500922 0.17309874
0.053651068 0.10327245 0.1693646
0.052196551 0.10656293 0.16384715
0.052012566 0.11052801 0.15928398
-0.0014861114 0.12278245 0.24937499
-0.029459577 0.12054662 0.21605463
0.020721793 0.16605389 0.1668649
0.021366779 0.12636063 0.24528933
0.012592081 0.16411781 0.17238802
-0.0081679635 0.16311884 0.12168425
0.023843996 0.17348115 0.14821608
-0.04206394 0.14814173 0.20511609
0.047317043 0.091912083 0.17709811
0.00076739863 0.17398781 0.14348002
-0.0077839196 0.13146681 0.20050365
-0.030371051 0.12316953 0.23353569
-0.052029427 0.11574015 0.22486907
-0.0034572221 0.081952721 0.20877726
-0.076178744 0.11874673 0.23104103
0.024445046 0.16761562 0.16086411
-0.060187358 0.17180783 0.20165241
0.014520604 0.1308846 0.20188238
-0.019529302 0.11556017 0.19549887
-0.017719779 0.14727286 0.12714985
0.00086951256 0.098053098 0.23606658
0.042856723 0.1506118 0.10352033
0.042554852 0.15362605 0.099243969
0.042879585 0.15677083 0.094089724
-0.036632922 0.15048236 0.2186442
0.0053306781 0.077891313 0.21008134
-0.053922992 0.11721137 0.23061611
-0.016237084 0.12729682 0.18978429
0.051254127 0.12071578 0.16797325
-0.01884998 0.096414089 0.18891588
-0.012024008 0.093148194 0.20710909
-0.010632303 0.080440998 0.18264952
-0.016178217 0.097772226 0.15575185
0.063583799 0.14002728 0.14450876
0.064718239 0.1394605 0.13481888
0.0033209026 0.16385162 0.11226575
-0.0097561963 0.13625351 0.23804525
0.048169412 0.093760312 0.18619603
-0.014499653 0.095611677 0.20328791
-0.012144435 0.083143048 0.17695774
-0.012818735 0.091327854 0.16573071
0.049379446 0.096743323 0.17615607
0.012623992 0.16746059 0.16826224
0.014477674 0.17677143 0.14830232
0.018494446 0.1298126 0.20143884
-0.0042194389 0.11398181 0.24641776
0.00085467473 0.11717793 0.24806093
-0.013553035 0.13742316 0.21128549
-0.040723775 0.1181601 0.2310494
0.0048696101 0.087664001 0.21817325
-0.018419888 0.10293536 0.22578643
-0.020644646 0.10817904 0.17219618
-0.012330536 0.094591059 0.21819378
-0.026319545 0.10721626 0.13458678
-0.026400324 0.11060597 0.13437684
-0.019901637 0.10072602 0.19137795
-0.019683626 0.14176379 0.13193162
-0.02222022 0.12920952 0.14397174
0.050878752 0.10683766 0.17438164
0.049963512 0.11129832 0.16838586
0.050467744 0.11471502 0.163123
0.0062625594 0.15269032 0.18052819
-0.0023790225 0.1477457 0.18012321
0.062473256 0.12733628 0.15768231
0.063386038 0.13249043 0.15461148
0.064286307 0.1372804 0.15036336
0.062488329 0.14409581 0.14122361
0.06275253 0.14357731 0.13835421
-0.028780837 0.15002412 0.19943544
0.027938925 0.16624174 0.11384313
-0.019205462 0.11215535 0.20193845
-0.022614893 0.11943972 0.15815264
-0.013832089 0.09494178 0.16092065
-0.0081959404 0.092130102 0.21505536
-0.035089258 0.14479819 0.20247449
-0.025212225 0.11408753 0.12976897
-0.019391026 0.13374713 0.13168848
0.050115976 0.10199098 0.17781503
0.0048849583 0.13369411 0.24526408
0.023793656 0.17070779 0.15505084
-0.010744505 0.088291772 0.20459874
0.015198782 0.11963053 0.24720758
-0.023067106 0.10861121 0.21418342
0.039833337 0.15469807 0.10632435
0.038037781 0.15829334 0.096963651
0.021693859 0.1085842 0.24280609
0.0076464601 0.17326346 0.15902077
-0.020343076 0.10453837 0.21096247
-0.016648438 0.10029891 0.20731547
-0.013067883 0.089878425 0.20062819
-0.080383077 0.1136015 0.2110422
0.033015046 0.15555036 0.10125446
-0.013554949 0.14306945 0.22157559
0.061765552 0.13012065 0.15909743
-0.020826098 0.11817583 0.18186483
-0.022656392 0.097681366 0.14984527
-0.052514534 0.16733369 0.18417458
-0.040440056 0.14934823 0.21478346
-0.033879746 0.1428588 0.21811637
-0.089003935 0.12197903 0.22530165
-0.068750739 0.12499951 0.22030903
-0.0071732849 0.15407801 0.17222787
-0.023653921 0.11670879 0.12632793
-0.048716512 0.15700623 0.19810814
-0.030720089 0.1376431 0.21542177
-0.021901798 0.10577103 0.21943763
0.037512869 0.078446984 0.19624346
-0.022728678 0.12586364 0.14830193
-0.027054038 0.13460821 0.21199498
-0.060881499 0.17376922 0.19844353
0.059787314 0.1235375 0.16174681
0.032860335 0.11634786 0.23506853
-0.037985001 0.12353092 0.21651709
0.020427419 0.097712427 0.22174564
-0.048029836 0.16419338 0.18355244
0.038953543 0.15271333 0.16320419
0.044570006 0.085178107 0.18569028
-0.012505006 0.086745203 0.17088501
0.049113873 0.10100812 0.18524922
0.048652764 0.10644821 0.18128604
0.057907894 0.126412 0.16646416
0.060603447 0.13254571 0.16223957
0.061539195 0.13712616 0.15808207
0.06226531 0.14137313 0.15380189
0.060521059 0.14497524 0.14837641
0.059886087 0.14779797 0.1440438
-0.030729752 0.15504143 0.19676596
-0.08399795 0.11809793 0.21300313
-0.014297735 0.11296119 0.24013388
-0.071931794 0.11933684 0.21323335
-0.0029009879 0.16804531 0.12395523
-0.029518347 0.11443748 0.22441055
-0.053617734 0.17109729 0.20669883
0.02725856 0.071588978 0.19620726
0.04711549 0.094658822 0.19482836
0.048771873 0.098311365 0.19056793
0.048843816 0.10422723 0.18716177
0.049015746 0.1064423 0.18388849
0.048460122 0.1110978 0.17865355
0.049077287 0.11096796 0.17594084
0.047667895 0.1150898 0.17155032
-0.07702744 0.11690377 0.21131536
-0.006062407 0.14765844 0.10536763
0.064494491 0.070155032 0.1740465
-0.020121899 0.11246005 0.19438037
-0.06359449 0.11644615 0.22532558
-0.011983279 0.13432267 0.20805153
-0.03449538 0.14762169 0.21985064
-0.069845617 0.11432576 0.21984318
0.011096004 0.17685321 0.14678422
0.059287433 0.13074738 0.16624776
-0.018214863 0.12948367 0.17456581
-0.045877162 0.12563515 0.21735239
0.022920646 0.10257055 0.22499472
-0.072200447 0.10976158 0.21365556
-0.065499544 0.12249728 0.21535748
0.016014051 0.098908775 0.22945693
0.048438843 0.10194059 0.19191343
0.047344416 0.11886689 0.16996264
0.043830819 0.1012639 0.20469014
-0.0027550273 0.10406487 0.23893443
0.012246773 0.095644057 0.22626153
-0.0068357252 0.13635576 0.21010485
-0.049582373 0.15824482 0.20674229
-0.013509247 0.12143147 0.24624331
0.030458607 0.099719934 0.21671355
0.0039203651 0.094219416 0.23244821
0.015786882 0.095831007 0.22251432
0.057618294 0.13246788 0.16991872
0.058498148 0.13681814 0.16564259
0.058849942 0.14085706 0.16120051
0.058663663 0.14461862 0.15652823
0.058274101 0.14820802 0.15108831
0.056682292 0.15166807 0.14776023
0.056682829 0.15144826 0.14497402
-0.019594479 0.12325957 0.18671006
-0.0045721643 0.096927047 0.23302743
0.0050505884 0.13367012 0.20043637
-0.0052909739 0.086460397 0.2109108
0.046376172 0.097217873 0.1993891
0.046249416 0.10121612 0.19973154
0.046781328 0.10400399 0.19494998
0.047521271 0.10815748 0.19005695
0.046629731 0.11174653 0.18606499
0.046119463 0.11268088 0.18128838
0.045818161 0.1155525 0.18107942
0.046327595 0.11795101 0.17789714
0.045261599 0.12010619 0.17408343
-0.0087809712 0.12378505 0.24791887
0.022920961 0.14496616 0.18366744
0.034133058 0.11260866 0.22559974
-0.032072771 0.11707831 0.22922282
-0.059315462 0.11630386 0.22738585
0.048658818 0.12430301 0.17286544
0.0020682029 0.082500152 0.21312191
0.052445129 0.1575413 0.13592744
-0.023556333 0.11252732 0.23036423
-0.019812133 0.15459397 0.14996387
0.054528553 0.15454097 0.14167675
-0.058863696 0.12456495 0.21671414
0.00042323396 0.13105789 0.24665457
-0.012713734 0.15559322 0.16568464
0.054742761 0.14048752 0.1691996
0.05543945 0.14437246 0.16415104
0.05519969 0.1482726 0.15958966
0.054471545 0.15222397 0.15505886
0.054420862 0.15461066 0.15010619
-0.026389543 0.11373976 0.13841781
0.013295423 0.1772216 0.13894352
-0.019532282 0.12776063 0.23775648
-0.014700536 0.16125053 0.13291384
0.044578973 0.10413329 0.20304587
0.044747595 0.10786076 0.19878277
0.044935353 0.11181259 0.19426605
0.044302169 0.11554354 0.18897197
0.043477435 0.11864792 0.18368435
0.04352827 0.12415069 0.1787502
0.046168938 0.12808636 0.17535457
0.050748833 0.15801162 0.14418769
0.049080096 0.15988766 0.1385392
0.044264063 0.095169611 0.20285235
-0.019685086 0.099427789 0.1534538
-0.049634766 0.16930419 0.20415163
0.027995618 0.096722178 0.21808107
0.0025944896 0.1049573 0.24051833
-0.045781713 0.11684026 0.22874577
-0.0073924214 0.16849598 0.15351368
0.052056007 0.15705132 0.1493582
-0.0643536 0.11540793 0.22284693
-0.021180075 0.11541994 0.17024271
-0.00098541752 0.14486432 0.22463848
0.041747216 0.098432302 0.2073704
0.042133331 0.11840557 0.18608439
0.047068361 0.1614576 0.13959675
-0.011723164 0.16538616 0.1343762
0.0035053082 0.17489983 0.14078885
0.051906727 0.14737615 0.16667151
-0.021836083 0.14137718 0.1536936
0.02178463 0.10078251 0.23138306
0.03904815 0.10227554 0.21025506
0.041285079 0.10769212 0.20530784
0.041435879 0.11212608 0.20170975
0.041319691 0.11613589 0.19605245
0.040872578 0.11899775 0.19189259
0.039708491 0.12213974 0.18791363
0.040996142 0.12429586 0.18486789
0.041151799 0.12834847 0.18241251
0.041861333 0.13287245 0.17719382
0.051488072 0.14378542 0.17039868
0.051766586 0.15106946 0.16219798
0.051171165 0.15391399 0.15844944
0.048820309 0.15594018 0.1573135
0.047875378 0.15825316 0.15209907
0.044090793 0.16425902 0.14082372
-0.07698068 0.12299109 0.22623077
-0.040532108 0.15969759 0.2051962
-0.028754909 0.14508861 0.2219573
0.021010207 0.083065271 0.21727069
-0.087316439 0.12214029 0.2155019
-0.020446811 0.10400829 0.1764749
0.039176662 0.10665995 0.20756546
-0.00049840286 0.1386354 0.18993726
0.046785749 0.14384145 0.17186376
0.048377901 0.14797476 0.16816115
0.048405714 0.15255177 0.16324544
0.043748163 0.16244832 0.14613858
0.010243587 0.089120179 0.22046897
0.044876926 0.090288356 0.19832636
-0.0083504096 0.15200244 0.11206447
0.026985429 0.17251498 0.12707195
-0.0070747994 0.14341187 0.22081193
0.012580901 0.11177257 0.24330963
-0.046897668 0.11182722 0.21774419
-0.016037364 0.095009372 0.1688568
-0.0064325333 0.13304049 0.19523248
0.034341395 0.10613163 0.213009
0.036073949 0.11042765 0.20917416
0.038242746 0.11360744 0.20360598
0.038463194 0.11757569 0.19909924
0.038409662 0.12141038 0.19448617
0.0357108 0.1262338 0.19050851
0.038287263 0.1314356 0.18376015
0.038092673 0.13637152 0.17956296
0.038475879 0.13971364 0.17617996
0.043109119 0.15876627 0.1546986
0.04014653 0.16088071 0.15447393
0.04091128 0.16428208 0.14912942
0.03927245 0.16715115 0.14434418
-0.023017626 0.11235901 0.21017639
-0.053420406 0.110093 0.22028095
0.010802489 0.1031948 0.23957568
-0.087405056 0.11809677 0.21302147
-0.048796516 0.12046467 0.23301241
0.045647785 0.087708637 0.18131298
0.0032008514 0.17121874 0.12562881
-0.015756745 0.091333732 0.17363608
0.035980016 0.11569739 0.20535861
0.035165023 0.12043691 0.19976507
0.035811547 0.12318933 0.19588712
0.0348396 0.13085102 0.187033
0.039753579 0.15658253 0.15893078
-0.03761014 0.11569394 0.22687262
-0.0086136088 0.088980585 0.20897025
-0.050698686 0.15877154 0.19731551
0.036453795 0.11864364 0.22409736
0.032847527 0.10258533 0.21495691
-0.0059372559 0.10859291 0.24025102
0.032718394 0.13900968 0.1824429
0.035003498 0.14221828 0.17800745
0.034484848 0.14721027 0.17374267
0.03460896 0.15136933 0.17001671
0.03506548 0.15519187 0.16526406
0.03441716 0.15811166 0.16073321
0.03556719 0.16248715 0.15526184
0.036010563 0.16612265 0.15108673
0.02729344 0.10420772 0.21950541
0.029574856 0.11001685 0.21607943
0.030556206 0.1137003 0.21191005
0.03229076 0.11806455 0.20655316
0.031282984 0.12185265 0.20261011
0.032161932 0.12602007 0.19726899
0.030293282 0.13001999 0.19260567
0.031000327 0.13436154 0.18722779
0.035024181 0.16845852 0.14741877
-0.016386766 0.13024677 0.20600775
0.030304376 0.17207772 0.14091597
0.0030934811 0.15568358 0.10462637
0.024774518 0.12102834 0.20988664
0.031941984 0.14359388 0.17981756
0.032457594 0.14706492 0.17619798
0.03235656 0.16055173 0.16010076
0.031438529 0.16302864 0.15688297
0.031858426 0.1669637 0.15178189
0.032437436 0.16972579 0.14586832
-0.036850985 0.15841335 0.2081361
-0.021663535 0.1170225 0.20618698
-0.01879688 0.099789932 0.17289376
-0.062857494 0.16948625 0.19270831
-0.019488338 0.14521289 0.13227916
-0.025407519 0.11778391 0.21343881
-0.047400575 0.15413058 0.2037968
-0.020267207 0.10843384 0.2062768
-0.043329757 0.15106887 0.20055896
0.028769001 0.11418283 0.21658297
0.027582835 0.11796473 0.21424937
0.026337527 0.12051328 0.2098906
0.027114466 0.12352966 0.20410149
0.02767041 0.12755069 0.19946384
0.026871413 0.13116622 0.19482538
0.026846871 0.13690187 0.18791756
0.031576619 0.1549741 0.17107546
0.031586081 0.15690073 0.1687825
0.026603986 0.17356549 0.14426228
-0.016150024 0.14544207 0.11946856
0.033516798 0.11709344 0.22054216
-0.027274225 0.13816118 0.20672584
-0.01278 0.084105201 0.18707955
0.00747234 0.11071559 0.24252273
-0.017830994 0.10225822 0.16034316
-0.015095968 0.087490782 0.17983717
0.076233178 0.10384311 0.14458239
0.07668224 0.099923074 0.14169763
-0.019426633 0.10158148 0.21625441
-0.04587188 0.16257034 0.19455487
0.018879328 0.17621806 0.14537232
-0.05182014 0.16390383 0.18697625
-0.026060488 0.13110536 0.2179637
0.068636872 0.12247271 0.11520704
0.025810037 0.17399952 0.13380203
-0.01713476 0.099805705 0.19952999
0.07122466 0.077202499 0.16403158
0.074869812 0.10603777 0.13982561
0.073666923 0.10841754 0.13462773
0.030543361 0.12440379 0.21899995
0.010287132 0.13666594 0.22074246
0.067062259 0.1251668 0.11160507
0.016610537 0.13259876 0.20886636
-0.055808391 0.17146689 0.19898057
-0.053378556 0.11540145 0.21311374
0.037815422 0.16888613 0.12950969
-0.017532494 0.14260453 0.21136425
0.071227916 0.11245641 0.12222102
0.031824205 0.10881616 0.22449775
0.019652642 0.13207532 0.21287468
0.069740482 0.084825002 0.15499327
-0.025813382 0.11783093 0.13427937
-0.057838511 0.17156561 0.19493951
0.058179684 0.12608999 0.10294044
-0.017489504 0.097514585 0.19666579
0.023213979 0.17537674 0.1421091
0.0076207779 0.13985902 0.22515889
-0.047126692 0.16578186 0.18951067
-0.041152235 0.16025665 0.20109691
0.065427072 0.12712097 0.11808069
0.065002687 0.12809709 0.11381754
0.062882446 0.12990761 0.11211161
0.060054742 0.13160872 0.10808788
0.031104304 0.17008346 0.1234131
0.057255335 0.1320761 0.10458264
-0.055377256 0.16737942 0.19152778
0.034012478 0.12517655 0.22231232
-0.012931388 0.08422327 0.18395936
0.012906551 0.13826436 0.23122676
-0.02270839 0.14501366 0.20526335
-0.045154411 0.16392055 0.20386019
-0.049685609 0.166253 0.19790697
0.022816982 0.13044086 0.21673422
0.025771514 0.13171867 0.23099141
-0.014272723 0.091083162 0.19822702
-0.024447087 0.14894886 0.21220461
0.0072316863 0.13577631 0.20738889
-0.0031166784 0.14318109 0.10187241
0.054585192 0.13370129 0.10268413
0.018074527 0.1355093 0.23142387
-0.016525608 0.092562333 0.19301255
0.052537125 0.13680682 0.092369966
0.024897967 0.072979398 0.20085287
0.031699557 0.128703 0.22543634
-0.022152815 0.14872253 0.21040693
-0.023864273 0.15034693 0.20812842
0.022838198 0.12560625 0.20868269
0.01495292 0.13453032 0.22248082
0.050123006 0.13925618 0.089001909
0.044592615 0.14156218 0.083059385
-0.055097345 0.16955242 0.18746141
-0.064554587 0.17276466 0.19551523
0.02762359 0.17390439 0.13788503
0.02705542 0.12957771 0.22315784
0.05059357 0.14485241 0.091006607
0.048370577 0.14387396 0.08709503
0.047216073 0.14795275 0.087726846
-0.051588248 0.16758239 0.19312452
0.021562416 0.17516389 0.13188836
0.0044887662 0.14090647 0.22164172
0.015376028 0.13445422 0.22726288
-0.038012613 0.16075368 0.19214022
-0.052503463 0.1698041 0.20105106
0.065397121 0.13156068 0.12271279
0.022582177 0.13090731 0.22077097
0.044268779 0.14587897 0.083190441
-0.022308048 0.14911386 0.14429736
-0.038291525 0.1570773 0.19810158
-0.032526221 0.15426588 0.20861906
-0.02633753 0.15255642 0.20319115
-0.029375147 0.15799712 0.20051587
-0.033601504 0.15896711 0.19923382
0.062677823 0.1356571 0.11812145
0.060265213 0.13480909 0.11415119
0.058187909 0.13729537 0.11173794
0.055768527 0.13915172 0.10758733
0.034497041 0.17001379 0.14267386
0.041743398 0.14957488 0.082507282
0.031575389 0.11936759 0.21813066
-0.033303041 0.15578856 0.20464443
-0.019460324 0.13110465 0.12231851
0.022084564 0.12811333 0.20977482
0.014812764 0.13526027 0.21842036
-0.019455876 0.13344899 0.20872396
-0.020519216 0.14136674 0.2069484
-0.04321162 0.16676433 0.20922744
-0.009846691 0.1552746 0.11491116
0.066182986 0.13366871 0.12593937
0.044743318 0.15130711 0.086285211
0.056610644 0.1423057 0.11268004
0.039440181 0.15458414 0.084513813
0.029698946 0.071545161 0.18793872
-0.084531754 0.12090538 0.23059988
0.064159267 0.13744704 0.12756482
0.061584741 0.1405333 0.1211344
0.058411099 0.14258973 0.11703379
0.054247215 0.14478537 0.10989194
0.051423799 0.14481571 0.1060158
0.034036387 0.17026515 0.12706143
0.030621361 0.10905396 0.23853448
0.04262666 0.15477794 0.087677188
0.038772725 0.16867788 0.13320614
-0.043261658 0.16252674 0.19666032
0.0083815344 0.1374827 0.2175419
-0.015040856 0.14216805 0.2158362
0.012018729 0.13513026 0.22510159
-0.02809291 0.1560251 0.20387404
0.019161716 0.13247055 0.22524165
0.035722565 0.16893831 0.12489162
-0.057436462 0.11377195 0.22181922
0.046570282 0.15021586 0.10641494
-0.042239774 0.11990532 0.2149792
0.06200802 0.14256404 0.13079329
0.058694456 0.14469665 0.12474771
0.055619206 0.14695407 0.11996514
0.053491645 0.14853385 0.1164269
0.052303154 0.14912164 0.11314346
0.049258117 0.15083882 0.10980786
0.039302755 0.15903127 0.091194585
0.036066953 0.15888068 0.087382652
-0.048081513 0.16731319 0.18610412
0.0086517073 0.14213692 0.22953358
0.059290648 0.14550085 0.12795892
-0.02862535 0.15666819 0.20015934
0.03813104 0.16854729 0.13966094
-0.026007924 0.14847896 0.20153819
0.060439143 0.14651671 0.13506135
0.057679269 0.14927849 0.1300348
0.055885766 0.14961559 0.1266894
0.052948151 0.15072417 0.12331295
0.049378667 0.15341973 0.11714017
0.046356462 0.15460968 0.11284834
0.042934202 0.15493116 0.10919589
0.032437481 0.16094303 0.090656169
0.041406546 0.081318565 0.18326592
0.0058187284 0.092385411 0.22881567
-0.0058929101 0.14033338 0.10311547
-0.010653377 0.093241349 0.22208118
-0.042501796 0.16492438 0.20808235
-0.042661797 0.16407143 0.19181752
0.026538409 0.12409814 0.2160508
0.050086591 0.15345478 0.12061781
-0.022248466 0.11743087 0.23711663
-0.081754029 0.11827838 0.22975673
0.0375662 0.076945797 0.18098556
-0.021657545 0.11882177 0.16576511
0.034256194 0.079664513 0.20430934
-0.017100032 0.15910651 0.13681135
0.058470655 0.15050991 0.13806009
0.055745196 0.15340045 0.13258262
0.051662832 0.15539831 0.1266211
0.047051556 0.15763524 0.11957054
0.043748435 0.15849119 0.11550616
0.040282413 0.15893127 0.11236361
0.037204318 0.15927748 0.11020987
0.034208462 0.15873843 0.10727128
-0.021537546 0.11407482 0.18604136
0.029625073 0.15829092 0.10445741
-0.0008767508 0.13706818 0.21176265
-0.023409363 0.13411382 0.14806727
-0.015992451 0.13810952 0.21023268
0.04867097 0.15797281 0.12324158
-0.020113107 0.13732925 0.20766081
-0.022260029 0.12217242 0.15227757
0.025181964 0.15595034 0.10072132
0.01057544 0.137578 0.2265216
0.04858591 0.15977025 0.12971742
0.045985918 0.16112021 0.12609416
0.04362217 0.16224121 0.12261927
0.040731762 0.16265249 0.1193984
-0.024717923 0.11643848 0.23339204
0.023823313 0.069690578 0.19083568
0.036884498 0.16334328 0.11553848
0.034832597 0.16330893 0.11379748
0.03157416 0.16295372 0.11096589
0.026665339 0.16190502 0.10779886
0.033668969 0.1127568 0.23328772
-0.0003590025 0.077231139 0.20633879
-0.050796758 0.16099745 0.19281784
0.033065286 0.073901705 0.19022861
0.04557031 0.16328786 0.13336208
0.043123137 0.16487086 0.12930533
0.040808838 0.16621622 0.12570864
0.037667412 0.1664405 0.12229925
0.034243278 0.16661948 0.11895238
0.031296216 0.16630667 0.11611082
-0.023359787 0.13859338 0.14410077
-0.040553402 0.1134445 0.21826552
-0.024597343 0.11079507 0.22206436
-0.020997506 0.12254259 0.16893855
-0.0032047518 0.090963744 0.22115119
-0.059506442 0.16635194 0.18940994
-0.03638811 0.15717903 0.19207504
-0.046184611 0.1651925 0.18500176
-0.056126077 0.16644022 0.18394282
-0.020085704 0.11258093 0.23391527
0.029792743 0.10550903 0.093197025
0.023885515 0.10288409 0.092623986
0.020132845 0.10083415 0.09179391
0.019195464 0.096746519 0.092922591
0.061044827 0.12201121 0.10476647
0.038258687 0.1239165 0.083976671
0.032336541 0.12299521 0.082571924
0.027103702 0.10780375 0.092755169
0.01753138 0.099849522 0.091562323
0.0119435 0.097790673 0.093196556
-0.018539291 0.14161775 0.12293896
0.037578329 0.12935862 0.081586108
0.03313056 0.12692697 0.080900602
0.028162131 0.12122371 0.083196051
-0.009932436 0.13231382 0.20479132
0.021433417 0.10709308 0.09276168
0.017193589 0.10468867 0.092118748
0.012522046 0.1022184 0.091895178
0.027825639 0.10313621 0.23342921
-0.022151243 0.11503378 0.16276361
0.04117956 0.13495889 0.081653319
0.034681603 0.13756368 0.078653276
0.034742743 0.132227 0.079497933
0.030756054 0.1295184 0.079770952
-0.014800642 0.14854407 0.11870181
0.02731082 0.11229929 0.090317555
-0.0033129491 0.092298932 0.22722323
-0.074541077 0.1228239 0.21620098
0.024032475 0.10160391 0.22089033
0.038979482 0.13990624 0.079806298
0.028977601 0.13437644 0.078156143
-0.02020378 0.12199461 0.17573863
0.01917303 0.11421289 0.091529936
-0.026318785 0.11016431 0.14282021
-0.042978663 0.15033895 0.21113577
-0.061320212 0.11248518 0.21981943
0.023594148 0.12963101 0.080404975
0.019938266 0.11041677 0.092661336
0.0090909861 0.10637751 0.09300115
0.0058051758 0.059147142 0.12639034
0.039290011 0.078928269 0.18885286
-0.042391848 0.11370289 0.22419427
-0.017981391 0.10699387 0.23140694
0.039992359 0.14372399 0.080127828
0.014472615 0.11253621 0.091155611
0.0141115 0.10793988 0.092427656
-0.010809746 0.14733478 0.11174293
0.017825145 0.15108672 0.089313276
0.018525794 0.14147633 0.080979243
0.047734622 0.091689192 0.18279873
-0.073226333 0.11264189 0.21083383
-0.015802909 0.12744404 0.20258254
-0.020878252 0.11118296 0.16758545
-0.067345604 0.11403517 0.21174106
-0.028292868 0.14335133 0.20251949
0.036764219 0.1467244 0.079401396
0.031696923 0.14502987 0.078010321
0.02671995 0.13847737 0.077474885
0.022102948 0.13659304 0.079014726
0.020041287 0.13266596 0.081068806
0.020685287 0.12061499 0.088814288
-0.022849713 0.14422596 0.14861566
-0.021271739 0.11853607 0.15002587
-0.079364821 0.12102328 0.21375372
0.026522642 0.14229593 0.077672042
0.016927455 0.12275796 0.090564013
0.011264656 0.1156998 0.090775236
0.0092209615 0.11138115 0.091278769
-0.021856841 0.13740498 0.15783219
-0.021568935 0.13290247 0.1621435
-0.027023975 0.12528367 0.21668908
-0.014365684 0.16335982 0.13798343
0.0090355016 0.056387398 0.13099435
0.015865099 0.11830792 0.091026105
-0.012053132 0.16160955 0.12508789
-0.019083697 0.13239801 0.16990265
-0.020756397 0.12913272 0.16637793
0.008497227 0.079724856 0.11004277
-0.020956982 0.10418817 0.18723997
-0.013996396 0.1641335 0.14257209
0.031073544 0.047263533 0.16252866
-0.022744413 0.1372252 0.15085049
0.010973938 0.12019401 0.091617778
0.0059618093 0.11450893 0.092337586
-0.019503634 0.13652334 0.16506898
-0.015816446 0.15225621 0.12365703
0.017079342 0.14710531 0.093926989
-0.020760093 0.12582852 0.14076351
0.040878139 0.084792443 0.20108469
0.034490824 0.15222415 0.081011847
0.02852645 0.14996448 0.079374999
0.023169136 0.14625719 0.079306215
-0.018040497 0.13965136 0.16709962
-0.018348079 0.15272535 0.13176225
0.012469105 0.12571621 0.091394432
-0.012551721 0.13133912 0.10894697
-0.021271061 0.11520922 0.17783123
0.029957613 0.075834095 0.20187157
0.0049312375 0.067437015 0.12303758
0.012951303 0.13033912 0.091411859
0.0079290122 0.12448578 0.092602052
0.0037259422 0.10918558 0.09440694
-0.0255193 0.10621143 0.14713971
0.031402294 0.10612488 0.23417221
0.076523416 0.09537816 0.14674145
-0.02000368 0.10068344 0.18151616
0.0017690919 0.11755827 0.095102534
-0.021584366 0.12827983 0.12617464
-0.01773173 0.13509426 0.17144981
-0.010592822 0.080684349 0.18616918
0.0019502677 0.077049725 0.20767853
0.010489527 0.094920911 0.23039168
-0.0088429712 0.10203905 0.23555174
0.016578522 0.13244727 0.089549951
0.0055373721 0.12070529 0.093911439
-0.014903661 0.14172429 0.11533128
-0.086023286 0.11922836 0.21969716
-0.021073971 0.15210849 0.1403603
0.043280553 0.084041528 0.19292201
0.030691616 0.15787372 0.084483922
0.029870346 0.15603659 0.082648799
0.025297763 0.154724 0.082479596
0.020408042 0.15032372 0.08246205
-0.0076449066 0.085091695 0.20680791
-0.022334103 0.12326485 0.20830214
0.0049222261 0.12866567 0.094253495
0.0037482791 0.12282991 0.09423542
-0.017178591 0.15995276 0.14124
-0.020899814 0.10872796 0.18210374
0.016353335 0.14148128 0.09043023
0.070758462 0.072497129 0.16836612
0.040534396 0.081746958 0.19749898
0.03205166 0.072113261 0.18306991
-0.019738849 0.12591793 0.20596242
0.013627075 0.13732411 0.092943177
0.0092323907 0.13411213 0.093053721
0.01662229 0.14470375 0.085472256
0.035931788 0.079030894 0.20035213
-0.016781751 0.11342245 0.23743206
0.0013941638 0.12567019 0.095841333
-0.0014340244 0.12158918 0.098398328
-0.010560691 0.14131752 0.10823435
-0.026075948 0.11407204 0.22781768
-0.021116618 0.14476123 0.13542555
-0.01983558 0.14757752 0.15887237
0.072751157 0.092150941 0.15334509
-0.016432669 0.13100706 0.11503103
0.027460795 0.16005588 0.089140393
0.022423949 0.1570784 0.087170422
0.018957058 0.15374994 0.087042511
0.0052540004 0.13286301 0.094385728
-0.089895099 0.12091615 0.21439131
-0.066915035 0.11017392 0.21544325
-0.0071913004 0.10124282 0.23582497
-0.052540135 0.11075658 0.21560477
0.039178938 0.079017222 0.19172198
-0.048224311 0.11192384 0.22247513
0.01193326 0.14398307 0.095804751
0.011337157 0.14126152 0.094751835
0.0011408329 0.13245651 0.097317956
-0.017592516 0.1268205 0.18237105
0.0062969998 0.13922334 0.095670827
0.0031105988 0.13566437 0.096706726
-0.0018148087 0.12917602 0.099075213
-0.0045371242 0.12647167 0.10044181
-0.021451984 0.12283486 0.14554746
0.0041205436 0.064004518 0.12781709
0.029175133 0.10511695 0.22789218
-0.018602867 0.15784225 0.14507711
0.029376645 0.10809352 0.22123304
-0.055302862 0.11337762 0.22205344
-0.018924829 0.12847883 0.11814076
0.018473294 0.11429343 0.2448722
0.013921563 0.15130931 0.098722495
0.035210725 0.079246216 0.16521111
-0.020003375 0.1218679 0.18267679
0.019742031 0.15407312 0.099672228
0.0089782923 0.14800975 0.098372094
0.0043071173 0.14365283 0.098927461
0.00070058927 0.13942149 0.10002158
-0.0018375441 0.13734335 0.10090325
-0.0050121993 0.13376087 0.10182829
-0.0074094981 0.12999764 0.10311274
0.045752153 0.087407246 0.1890476
-0.022627387 0.12295047 0.13881132
-0.018905994 0.10342108 0.16811982
-0.058491301 0.10926422 0.21503434
-0.055919606 0.16574642 0.20269807
-0.024422366 0.12214875 0.12933192
-0.0017164685 0.11485563 0.24641736
-0.00071877614 0.083187439 0.21216723
-0.019842673 0.15134332 0.15434934
-0.06224199 0.12662902 0.22229825
0.021343827 0.16005217 0.10554665
0.016147528 0.15790594 0.10346103
0.011006534 0.15501927 0.10214452
-0.0076216869 0.13820392 0.10468145
-0.028809626 0.11526708 0.22037406
0.0091635697 0.066456273 0.13881119
-0.034242589 0.11435716 0.22336178
-0.084764302 0.12521556 0.2227304
-0.084411696 0.12422156 0.2266155
-0.080025911 0.12354851 0.22887969
0.045438316 0.14568666 0.17071614
-0.079654872 0.12091245 0.23200062
-0.016606722 0.11647709 0.24325782
-0.01911832 0.11722648 0.24026151
0.0004994534 0.079945661 0.2098067
-0.070518732 0.12457703 0.22738555
-0.070683628 0.12519546 0.22365315
0.0020613 0.091342196 0.22745286
-0.0094027407 0.16664274 0.13047189
-0.0096913688 0.1129393 0.24402612
0.020769551 0.15543786 0.092014499
-0.0043068118 0.16887474 0.12752259
-0.0053279065 0.1697721 0.13180903
-0.028105069 0.14119613 0.22265472
-0.0077205636 0.16892537 0.13591811
-0.064150006 0.10897483 0.21322292
0.023041032 0.15567645 0.095427193
0.021101618 0.15266266 0.096012622
-0.0090510175 0.16842005 0.13975702
-0.062750697 0.1266683 0.22686216
-0.063859552 0.12548748 0.22928001
-0.035454158 0.12076682 0.23254485
0.026159141 0.15820143 0.095449023
0.0011434481 0.17158034 0.12886664
-0.0099732392 0.16798969 0.14502835
-0.00033552572 0.13593249 0.20755559
-0.063891619 0.12313212 0.23197737
-0.00069836155 0.17231429 0.13381425
-0.012644488 0.16559884 0.14900109
-0.0069205612 0.11235005 0.24493748
-0.0042883232 0.17124575 0.1369973
-0.011655428 0.16569839 0.15255883
0.022044307 0.091111362 0.220193
-0.056342106 0.1277771 0.2237305
-0.057710599 0.12685597 0.22888948
-0.061878864 0.11834624 0.23274156
-0.016885314 0.13788483 0.11882317
-0.0039739609 0.17175284 0.1413603
-0.012890618 0.16316423 0.15615988
-0.060827728 0.12618101 0.22981678
-0.057579968 0.122105 0.23295861
0.032458019 0.15939444 0.096447073
-0.0052969866 0.1708141 0.14754935
-0.01085306 0.083413795 0.19864216
0.027717918 0.083389342 0.21406566
0.0063463189 0.17384735 0.13080402
0.0038176626 0.17430124 0.13564989
-0.012824368 0.15973225 0.16144657
0.053791218 0.12807955 0.172204
-0.051901806 0.12842408 0.22599745
-0.022313934 0.1217436 0.2383959
0.045653384 0.057538569 0.16382372
0.049800482 0.06072741 0.16419059
0.055446327 0.061986472 0.16720468
0.053305097 0.065328412 0.16994219
0.060480043 0.063852474 0.17000887
0.065981284 0.066883355 0.17134863
0.025387518 0.086764827 0.21750909
-0.020771246 0.11055708 0.15846285
0.040281899 0.051232226 0.16620408
0.038119156 0.055076092 0.16838266
0.043707833 0.055235282 0.16612589
0.039724134 0.087928072 0.20666066
0.036748726 0.085353091 0.20853174
0.032900132 0.051124871 0.16714814
0.050014846 0.063983545 0.16537789
0.05765586 0.067368001 0.17313614
0.067945719 0.074014969 0.17338377
0.041663103 0.091320023 0.2056504
0.025253177 0.12328106 0.24457657
0.02789267 0.089257106 0.21700156
0.012637053 0.12813303 0.24712038
-0.02030867 0.12587962 0.17154439
0.041569266 0.056480311 0.1673813
0.043028429 0.061309312 0.16615699
0.047115393 0.066966623 0.16428146
0.020361193 0.12092882 0.24625532
0.066937305 0.087781429 0.15560544
0.054768242 0.12424557 0.16857532
-0.02258851 0.14241692 0.13947515
0.061535127 0.074059159 0.17499584
0.027353056 0.11389881 0.24235488
-0.019619774 0.13830277 0.12762927
0.035162866 0.088853329 0.21162739
0.055955712 0.070565462 0.17357698
-0.016904864 0.098780371 0.22168343
0.065760329 0.090817943 0.15636289
0.071760744 0.097775981 0.15420263
0.031001505 0.084887139 0.21238124
0.03122071 0.055125132 0.16760454
0.035044275 0.056794465 0.16903451
0.035293441 0.061960351 0.167062
0.040143635 0.062959149 0.16633335
0.040234178 0.067626119 0.16382313
0.024355076 0.11805093 0.24451134
0.025441471 0.09368781 0.21923198
0.032321099 0.081152506 0.20864546
0.047613505 0.13818392 0.17452002
0.011887003 0.12346861 0.24830317
0.035190746 0.06695722 0.16433321
0.040461529 0.072853871 0.16146952
0.02401186 0.079860233 0.21336548
-0.03231686 0.14858276 0.22043568
0.05549144 0.076679863 0.17211683
0.031359121 0.071442932 0.16449633
0.0037863851 0.12492311 0.24903385
0.062544279 0.099352911 0.15490144
0.035907157 0.11604831 0.22903827
0.043087542 0.13838409 0.17467257
0.037577726 0.076807208 0.16228078
-0.02224217 0.12215875 0.12276945
0.058891624 0.10662335 0.15213366
0.04138761 0.079753831 0.16481139
0.047487326 0.08090847 0.16784486
0.048750289 0.089342847 0.17202598
0.051913626 0.092318282 0.17123291
0.057158694 0.10967892 0.15451053
-0.015650254 0.097620055 0.21229739
0.063608445 0.11772086 0.15395515
-0.019040067 0.10630724 0.1594241
0.055188686 0.11236236 0.15712744
0.057483986 0.11611564 0.15793648
0.061567295 0.11945913 0.15668231
-0.05304281 0.16066828 0.20003456
-0.043285307 0.15460759 0.19563071
-0.028908025 0.13694 0.21908365
-0.023815047 0.11955985 0.20978321
0.047029961 0.091236398 0.19076243
-0.026304718 0.10031351 0.14159864
-0.019001443 0.097204678 0.1855616
-0.022830803 0.13097593 0.21044168
0.052781034 0.1170592 0.16299561
0.056032076 0.11889316 0.16177863
-0.018140044 0.11862475 0.19943398
-0.020656746 0.10474287 0.22200042
-0.018942151 0.10843731 0.19799404
-0.021350916 0.11066072 0.1758509
-0.055169296 0.16309693 0.19556797
0.031114753 0.076274745 0.16674833
0.011276241 0.055461913 0.13465604
0.014685396 0.056153454 0.1371029
0.011644576 0.059056975 0.13872245
0.019488264 0.057273958 0.13974302
0.017926615 0.060917273 0.14323547
0.011467326 0.077554382 0.10815182
-0.019890729 0.1298161 0.13612209
0.028815374 0.050919835 0.16416855
0.0071995892 0.10782795 0.24187662
0.0094596632 0.057112411 0.13585898
-0.010047887 0.13388528 0.10692757
-0.08323203 0.11744045 0.21818596
0.012214601 0.10915251 0.24234685
0.025604118 0.052957349 0.16225925
-0.057913359 0.10966275 0.21873955
0.0063549839 0.060548805 0.13299932
0.025817728 0.057063349 0.16234787
0.050110415 0.068776168 0.16800597
-0.016000237 0.10135068 0.22825846
0.020519286 0.059204217 0.14888406
0.047709536 0.070877224 0.16495135
0.011804234 0.063290969 0.14081496
0.01544391 0.06554921 0.14354491
0.017603632 0.067383289 0.14752737
0.02986652 0.059990261 0.16592205
0.044694625 0.074962117 0.16282527
0.050310373 0.073976852 0.16808173
0.052656338 0.07063169 0.17132981
0.0041937493 0.06852074 0.13202871
0.005990237 0.065493479 0.13551977
-0.021268439 0.11906607 0.17306471
0.0236369 0.06281849 0.15943007
-0.0062316097 0.11722637 0.2490664
0.013342582 0.069781296 0.14204153
-0.021742236 0.14899361 0.15034528
-0.020686377 0.14815742 0.13583341
0.020119909 0.063968308 0.15357544
0.028557701 0.06402199 0.16321379
-0.042496484 0.1125358 0.22052413
-0.072475135 0.11741804 0.22650923
0.026994899 0.068461068 0.16376176
0.048792511 0.077681631 0.16653533
-0.022144224 0.12987296 0.15944925
0.007579226 0.072188646 0.13559258
-0.017377462 0.13447191 0.11869383
