ply
format ascii 1.0
comment PCL generated
element vertex 1329
property float x
property float y
property float z
element camera 0
property float view_px
property float view_py
property float view_pz
property float x_axisx
property float x_axisy
property float x_axisz
property float y_axisx
property float y_axisy
property float y_axisz
property float z_axisx
property float z_axisy
property float z_axisz
property float focal
property float scalex
property float scaley
property float centerx
property float centery
property int viewportx
property int viewporty
property float k1
property float k2
end_header
-0.3712948 0.10232519 0.060352314
-0.40879184 0.11853223 0.059151024
-0.41326171 0.12275841 0.035453964
-0.40305415 0.064336263 0.051024899
-0.4243845 0.14071444 0.021882448
-0.31043395 0.099988148 0.074747875
-0.36766458 0.16362342 0.035772122
-0.36530948 0.089477442 0.077639401
-0.37990937 0.095434792 0.043196164
-0.30929083 0.098822437 0.0170791
-0.41402039 0.082106218 0.075245127
-0.26920164 0.059745006 0.050318044
-0.26436305 0.060983874 0.048731435
-0.25856793 0.061707996 0.047165152
-0.38456503 0.13871202 0.055573747
-0.40335774 0.056561448 0.056931082
-0.41753602 0.12664102 0.037785068
-0.36805218 0.10087093 0.046527702
-0.33245286 0.050757878 0.082520276
-0.38495243 0.078474171 0.033333361
-0.39853609 0.077340342 0.047561921
-0.38603395 0.05970791 0.030401692
-0.3576853 0.068347238 0.017122798
-0.29978421 0.051650234 0.08525908
-0.29222178 0.04775051 0.08045245
-0.28185999 0.095114909 0.030228449
-0.39839202 0.11802676 0.081691816
-0.36214978 0.037184134 0.081095383
-0.39506549 0.079537474 0.04441129
-0.38066924 0.06099128 0.027002115
-0.36778033 0.064383596 0.023019679
-0.35237101 0.035857111 0.077383474
-0.32014394 0.10880353 0.070004582
-0.29905659 0.10907027 0.063387975
-0.36423397 0.086246945 0.079994068
-0.41508889 0.10022917 0.082807183
-0.41295463 0.10024099 0.088647291
-0.37831649 0.11332865 0.064176977
-0.41299847 0.11991707 0.048249587
-0.40448105 0.066658676 0.064545617
-0.40979874 0.093929909 0.056698523
-0.36624837 0.083655119 0.026662661
-0.40642986 0.081840746 0.054079652
-0.33955544 0.075250886 0.0008856263
-0.33758578 0.077831477 0.0018864293
-0.38487107 0.083094254 0.03543308
-0.31661844 0.097120799 0.016384559
-0.33356079 0.092462339 0.016898585
-0.34504193 0.042209484 0.081019998
-0.33829349 0.044408366 0.078508392
-0.33220795 0.045206115 0.077110052
-0.33972317 0.10470946 0.067008711
-0.34493929 0.10576629 0.058584616
-0.31720617 0.046397775 0.087432668
-0.31174102 0.048927955 0.08818011
-0.30556649 0.050844535 0.088128135
-0.29540396 0.054439701 0.08400318
-0.29337797 0.053057589 0.082404032
-0.36736307 0.1282746 0.050475352
-0.27365607 0.083272591 0.050395329
-0.38662514 0.094512627 0.045882102
-0.34994489 0.089328118 0.021192707
-0.36243951 0.066334955 0.02080795
-0.40396845 0.076671772 0.054553065
-0.37462449 0.12877725 0.045642037
-0.33174586 0.0784766 0.0013921186
-0.32067111 0.090744577 0.013677016
-0.3505716 0.039933927 0.080696225
-0.40052438 0.1097603 0.095839053
-0.30447993 0.10104086 0.072060563
-0.39879948 0.07215859 0.045416251
-0.40623015 0.093637563 0.099768102
-0.39928865 0.097572535 0.048654206
-0.27015805 0.065423392 0.051054463
-0.26156607 0.066487581 0.045686226
-0.40665731 0.080173723 0.098310888
-0.3115007 0.11341892 0.063087493
-0.39810142 0.091955155 0.047463253
-0.3963542 0.08552935 0.046701558
-0.39563745 0.073553614 0.041990407
-0.41308928 0.13337933 0.005673904
-0.26802766 0.068516858 0.043385625
-0.38322085 0.12064163 0.071938068
-0.31702796 0.049346797 0.088668644
-0.36837757 0.094221435 0.03545307
-0.35530573 0.070280373 0.0089091919
-0.35403329 0.15071706 0.0301171
-0.38345003 0.13890754 0.050151162
-0.3873722 0.13114171 0.054686319
-0.42243254 0.14888349 0.010163657
-0.41024777 0.13812077 0.023577675
-0.33699021 0.11107289 0.052747551
-0.32715157 0.078589514 0.0015332177
-0.36914313 0.14467749 0.037219413
-0.38706648 0.12455217 0.053720616
-0.40450418 0.096255369 0.051499311
-0.38172549 0.034495234 0.073442221
-0.33888805 0.091450326 0.017792914
-0.38484728 0.11912899 0.053480748
-0.3643508 0.16459143 0.034126632
-0.32329217 0.046211697 0.086388111
-0.39278436 0.077460751 0.10502027
-0.39794838 0.11823582 0.043983072
-0.396669 0.066459604 0.081712753
-0.35377002 0.14555791 0.032034151
-0.31551483 0.080930762 0.081751585
-0.36759076 0.03253258 0.075126752
-0.37414262 0.062192157 0.024564013
-0.35718414 0.041916035 0.083791852
-0.3513279 0.045194536 0.083106577
-0.3260062 0.05086147 0.088638008
-0.3185299 0.052783191 0.090412125
-0.31252709 0.054545313 0.090364873
-0.30667907 0.056136809 0.089975402
-0.30111003 0.058319859 0.086865142
-0.29644158 0.059586965 0.084930614
-0.36322749 0.13245918 0.049257018
-0.41336703 0.13946633 0.005634848
-0.41410959 0.10340729 0.07135985
-0.40888962 0.13355593 0.015236907
-0.29068691 0.10529242 0.033611827
-0.40617701 0.10870682 0.051609952
-0.36978224 0.16077438 0.043290742
-0.38879475 0.035119951 0.063351631
-0.36868817 0.040984429 0.085481942
-0.3628698 0.041592598 0.085593775
-0.3570109 0.045091189 0.085787326
-0.35322401 0.045737602 0.084842771
-0.34683985 0.048100241 0.0830971
-0.34460816 0.046858631 0.08198598
-0.3394478 0.049548022 0.079890624
-0.41040558 0.13406084 0.0094913915
-0.28838512 0.086099364 0.013675745
-0.36013272 0.0062121227 0.078267932
-0.38091731 0.093076542 0.041043099
-0.41705245 0.1300697 0.027291108
-0.37697431 0.10911452 0.062452175
-0.3863399 0.13564534 0.05685962
-0.41602406 0.1304419 0.018780336
-0.29895508 0.11063295 0.060027208
-0.32303756 0.053325996 0.091058493
-0.35575184 0.099259906 0.037232418
-0.4000625 0.12461946 0.039272312
-0.39573002 0.06969174 0.08710216
-0.41448554 0.12650181 0.011941295
-0.40669814 0.13290057 0.022353239
-0.40344346 0.072148658 0.083166793
-0.36205685 0.044953167 0.087365285
-0.33628312 0.052164316 0.080068141
-0.37382674 0.050791286 0.090875596
-0.4141829 0.089622371 0.076237127
-0.40398267 0.070883341 0.077407494
-0.37576231 0.10831286 0.068173647
-0.37543684 0.14863071 0.041866258
-0.41399154 0.1112143 0.078340486
-0.38837785 0.060777135 0.087092623
-0.4122884 0.076368906 0.074158363
-0.39981413 0.067906037 0.078013927
-0.32549718 0.056667611 0.092474818
-0.31954563 0.05825112 0.092238739
-0.31380859 0.059851147 0.091405138
-0.30822128 0.06148082 0.089942157
-0.30220053 0.062872395 0.087834433
-0.29828021 0.065468423 0.085970685
-0.29624403 0.064490505 0.084324792
-0.36896768 0.098814078 0.040874951
-0.41407633 0.083484761 0.069063492
-0.36581174 0.096625708 0.070698127
-0.40287107 0.069459669 0.0524216
-0.37107521 0.044692792 0.088388115
-0.36921868 0.047926143 0.089877471
-0.36383647 0.04836636 0.088552192
-0.35756043 0.049700327 0.087795243
-0.35282558 0.051800348 0.086127073
-0.34879422 0.051421128 0.083378658
-0.34717846 0.053731918 0.084034488
-0.34325123 0.054351486 0.083457932
-0.33948764 0.055505626 0.081260473
-0.41245246 0.11078897 0.083646491
-0.34082839 0.090145878 0.078571603
-0.38706368 0.071117021 0.099337801
-0.4093138 0.11359271 0.053326223
-0.41730964 0.12810312 0.031608663
-0.33515292 0.056415021 0.084580287
-0.4042933 0.062845856 0.057803474
-0.28735018 0.068960041 0.078172855
-0.40984613 0.10555164 0.05876698
-0.3236658 0.11225539 0.030912848
-0.29273206 0.0671371 0.081929117
-0.40443707 0.1310688 0.028809428
-0.40449974 0.11070683 0.092361867
-0.33293957 0.11351248 0.045436788
-0.32155174 0.06424921 0.092705846
-0.31531501 0.065357231 0.091735408
-0.30975616 0.067155905 0.090343043
-0.30435455 0.069283009 0.088619784
-0.29924947 0.06970077 0.086621955
-0.33901209 0.081398353 0.0052618273
-0.29196519 0.10737505 0.057385866
-0.40599251 0.11705195 0.071248338
-0.30518913 0.10946521 0.027453199
-0.37075546 0.052081093 0.091508314
-0.36538583 0.053599812 0.090529934
-0.35969236 0.055205651 0.089501068
-0.35378832 0.056887776 0.087342218
-0.34829152 0.058202028 0.084825441
-0.34148127 0.060952626 0.083998516
-0.33585346 0.061463796 0.085433647
-0.29404464 0.072693139 0.081719443
-0.28921208 0.073446564 0.077939451
-0.37555954 0.045342915 0.088043973
-0.35617039 0.070960134 0.013776457
-0.36746684 0.15637551 0.044216059
-0.39187092 0.060292959 0.084974363
-0.4131583 0.087695159 0.08144851
-0.4136014 0.12114064 0.042702444
-0.31478778 0.11680136 0.047056925
-0.2981315 0.072709493 0.085277885
-0.41594785 0.12899059 0.024964482
-0.36099669 0.088938773 0.027680684
-0.38046727 0.11569076 0.083706781
-0.37811992 0.050597876 0.089839041
-0.35072279 0.059485115 0.085086167
-0.28984505 0.07611043 0.077574238
-0.30309924 0.11134732 0.031947277
-0.29788202 0.11175288 0.050281797
-0.31680608 0.070416741 0.091553658
-0.33436981 0.10438152 0.026898231
-0.40201354 0.070830472 0.089227989
-0.37916306 0.055927463 0.090779334
-0.37166733 0.057353474 0.091553107
-0.36643571 0.059616491 0.091181889
-0.35992908 0.061109863 0.089302823
-0.35531101 0.062349282 0.08762002
-0.35091808 0.064267211 0.085599348
-0.34697059 0.064294182 0.085598499
-0.34282747 0.066594362 0.085742041
-0.33610919 0.068134837 0.08490774
-0.32176977 0.068990573 0.092090338
-0.31139416 0.072025411 0.090213478
-0.30715257 0.073456146 0.08864522
-0.30595419 0.076026835 0.086948827
-0.30098188 0.076825418 0.084107816
-0.29026175 0.080320716 0.07700932
-0.4186326 0.14302704 0.020048417
-0.37046593 0.14409916 0.048282146
-0.38744378 0.13102299 0.0614664
-0.40094024 0.053611167 0.074530959
-0.41420859 0.14519182 0.0059628785
-0.37174886 0.081591226 0.027770186
-0.37466824 0.058429204 0.090886042
-0.35683772 0.10056256 0.062352795
-0.32442564 0.072158106 0.089411825
-0.31879979 0.073333256 0.089957118
-0.31251231 0.075393632 0.08880116
-0.2954652 0.080674909 0.07911694
-0.40369385 0.065355778 0.070372544
-0.37449759 0.039939314 0.084254488
-0.29196998 0.092683725 0.017246153
-0.28080839 0.092465363 0.059317298
-0.38030472 0.11696247 0.076482594
-0.40833151 0.087991774 0.092875779
-0.40817329 0.11474748 0.033923227
-0.36926931 0.069957726 0.023650417
-0.36592016 0.10122323 0.058942694
-0.38076124 0.062381297 0.09014608
-0.3748987 0.063561998 0.090778679
-0.36815542 0.06313426 0.090373144
-0.36244997 0.064736798 0.089380115
-0.35682505 0.066363454 0.088075399
-0.35203031 0.070450053 0.085490599
-0.34314561 0.070993565 0.085429251
-0.33729309 0.07366512 0.084636375
-0.3327418 0.075021282 0.084180534
-0.30428898 0.080709115 0.082179606
-0.30394968 0.0839632 0.080568984
-0.2977232 0.084575951 0.0793145
-0.29301116 0.086323239 0.076388873
-0.39414543 0.099249579 0.047737896
-0.41322789 0.11790056 0.029861456
-0.41067189 0.081360675 0.086454362
-0.41450715 0.1414264 0.0030918084
-0.41593605 0.12688531 0.044108629
-0.36248013 0.032579884 0.074348733
-0.28824905 0.10470579 0.040231228
-0.37486172 0.068370767 0.025274282
-0.36912751 0.066542216 0.090392441
-0.36250621 0.069013894 0.08827962
-0.35780421 0.069623664 0.087537006
-0.34713188 0.073475577 0.08448644
-0.309852 0.082192577 0.081289828
-0.41007394 0.11502854 0.047371153
-0.40110403 0.07273265 0.049715623
-0.36822963 0.14693655 0.035901919
-0.38187003 0.073969029 0.10233046
-0.38467991 0.061089464 0.088890076
-0.41380233 0.095298089 0.076170236
-0.33986816 0.07960622 0.083150089
-0.33394694 0.079462789 0.083479911
-0.32811886 0.082343623 0.082425654
-0.32294589 0.084374353 0.081866741
-0.31705111 0.085658394 0.08086133
-0.3121812 0.086949885 0.078838877
-0.30520236 0.088050447 0.078140616
-0.29985982 0.089366607 0.077385679
-0.38915443 0.066840775 0.087855682
-0.38260818 0.068983674 0.089656487
-0.37706643 0.070029415 0.089324549
-0.36998916 0.07081911 0.089124858
-0.36522281 0.07315246 0.087466419
-0.35854679 0.074287139 0.086566001
-0.35339311 0.077067569 0.083930403
-0.3466512 0.078423552 0.082941055
-0.29608488 0.090655722 0.075392872
-0.37905321 0.10792781 0.056582689
-0.29065615 0.094246849 0.069451988
-0.28044587 0.086772867 0.022911407
-0.37344626 0.078370735 0.086402446
-0.33561382 0.082799032 0.082684472
-0.33076605 0.084109165 0.082239404
-0.31105244 0.089817077 0.077787668
-0.3075268 0.09130571 0.076148808
-0.30131376 0.092595711 0.074958801
-0.29505441 0.092660353 0.073022068
-0.37221879 0.14185697 0.052249894
-0.38808954 0.10088398 0.048127718
-0.37071651 0.076374337 0.02552082
-0.36288494 0.16078062 0.027924212
-0.31495661 0.09975034 0.017926982
-0.39452291 0.10572236 0.04967311
-0.3746641 0.14337289 0.040409811
-0.39234468 0.093532987 0.04623574
-0.3724719 0.13775173 0.040570356
-0.38100982 0.072782025 0.090786114
-0.37755051 0.075680502 0.089898631
-0.37321174 0.077080406 0.087396607
-0.3668457 0.07726226 0.085766777
-0.36089966 0.078674614 0.084969759
-0.35561985 0.080554001 0.083015874
-0.34718204 0.082952864 0.081101522
-0.3228159 0.089182273 0.081445575
-0.31999695 0.089985877 0.080831245
-0.29366148 0.098481894 0.069082379
-0.30382201 0.094288543 0.013290448
-0.38092908 0.073435292 0.097587228
-0.3789224 0.12044504 0.051583473
-0.38818708 0.065032817 0.032563515
-0.409982 0.089886196 0.088236719
-0.35935506 0.074064091 0.020032307
-0.38151878 0.066850506 0.027925845
-0.31524065 0.016707903 0.082186684
-0.31498209 0.012610963 0.079533681
-0.40349144 0.090702444 0.05010251
-0.36244497 0.14627255 0.039285246
-0.29563609 0.10526902 0.064842768
-0.35782659 0.14850634 0.031022338
-0.39103073 0.11761063 0.056369111
-0.28495041 0.026798489 0.06642729
-0.28559864 0.096231498 0.062745035
-0.39076018 0.083169423 0.041779034
-0.34635112 0.0048357062 0.080120832
-0.31082451 0.017789017 0.079248808
-0.30591404 0.018791605 0.076247066
-0.37676314 0.080290951 0.09703432
-0.37816662 0.10181198 0.087105229
-0.28122696 0.028718667 0.064155564
-0.36909339 0.091618873 0.083736807
-0.36433631 0.16007282 0.037429295
-0.40479866 0.11985888 0.02770203
-0.28108031 0.084178887 0.067542888
-0.37688836 0.11960266 0.063042648
-0.29493868 0.019679992 0.068834886
-0.38902587 0.069218598 0.095667109
-0.371472 0.090636291 0.088092461
-0.33572671 0.0088981334 0.076569036
-0.33340752 0.082997799 0.0047856029
-0.36182791 0.16013984 0.033665664
-0.27695975 0.032007121 0.052939281
-0.3899017 0.080786958 0.039102182
-0.29213578 0.101189 0.065959409
-0.38073546 0.10706994 0.088706791
-0.35722053 0.14798638 0.036620628
-0.36719778 0.14369242 0.045702428
-0.28571814 0.033034362 0.067258835
-0.28203297 0.032786965 0.064878613
-0.28043425 0.034894586 0.062958807
-0.27733573 0.036651269 0.059164945
-0.27793375 0.0871768 0.059495974
-0.27529639 0.037597753 0.055255074
-0.36064121 0.15453114 0.032130878
-0.37776113 0.079853505 0.1017689
-0.38575995 0.064303786 0.030733192
-0.38454551 0.10457762 0.095531255
-0.37257582 0.12264586 0.056565356
-0.36867449 0.14959739 0.045535501
-0.36430469 0.15225476 0.039597806
-0.37429628 0.088689722 0.092069253
-0.38365602 0.092113465 0.10276052
-0.39352643 0.074470073 0.040154006
-0.3763895 0.12867293 0.060542814
-0.36932909 0.099005826 0.07698255
-0.28713137 0.079965368 0.012355599
-0.27383062 0.039823189 0.052750241
-0.3844817 0.09955921 0.098555923
-0.3894372 0.075381011 0.036042742
-0.26484957 0.040380426 0.046485167
-0.39241517 0.038888842 0.064684108
-0.3790333 0.084788427 0.10302316
-0.37436384 0.1266606 0.061170328
-0.37228793 0.12822478 0.059169453
-0.37067774 0.082637362 0.085866347
-0.3791256 0.098003767 0.090837553
-0.26171672 0.042663038 0.043631017
-0.25769955 0.045876786 0.036941443
-0.35622805 0.15485296 0.030805748
-0.36384261 0.16508006 0.02937492
-0.28820902 0.096303716 0.066371262
-0.3783316 0.087461948 0.098563939
-0.260084 0.047259815 0.04706059
-0.25832227 0.04665044 0.042850532
-0.25698543 0.050619431 0.043760855
-0.36051494 0.15297548 0.035940256
-0.28489146 0.099005193 0.058889292
-0.37848288 0.10864797 0.084742844
-0.3827256 0.099091686 0.09382239
-0.35896459 0.13966919 0.04318158
-0.36574578 0.1575042 0.040493581
-0.28690857 0.037796162 0.071391225
-0.37724358 0.090354182 0.094330013
-0.25557226 0.049405731 0.038274877
-0.32307249 0.1078464 0.023942964
-0.36565647 0.1387462 0.045051932
-0.37340793 0.13633953 0.054319255
-0.36809075 0.12990186 0.055303391
-0.3640812 0.1350338 0.053413365
-0.36396071 0.13782993 0.049861766
-0.28203925 0.041159615 0.068192348
-0.2802242 0.040741928 0.063852556
-0.27769864 0.043136828 0.061801586
-0.27428311 0.044741146 0.058296222
-0.29174769 0.090770759 0.072865754
-0.25387833 0.053486459 0.037283868
-0.37847477 0.07559029 0.095565245
-0.36976656 0.1367967 0.052027695
-0.31487674 0.086039506 0.0074263001
-0.37041488 0.085306622 0.086789429
-0.37563646 0.097463615 0.088698819
-0.38043511 0.11293011 0.056927741
-0.37512916 0.11908663 0.057885963
-0.37064537 0.15221852 0.051004879
-0.29289553 0.096874654 0.018867573
-0.28800398 0.039896242 0.07453157
-0.25487226 0.054188155 0.042263094
-0.2762374 0.048151799 0.062894121
-0.2534807 0.059226483 0.038431793
-0.38161737 0.031283885 0.060506348
-0.42563418 0.1470335 0.016126152
-0.28788531 0.044422723 0.075245857
-0.28209233 0.046395496 0.07076776
-0.27885637 0.048600458 0.066795036
-0.27351996 0.050596975 0.06041526
-0.27143815 0.051114902 0.056126334
-0.27968875 0.086692654 0.063811749
-0.40015084 0.074168332 0.1027571
-0.25477004 0.058464743 0.042669192
-0.28373572 0.08454369 0.070270374
-0.36323488 0.14535251 0.042412177
-0.37587866 0.10260143 0.084158331
-0.37976032 0.11913728 0.067277312
-0.38179708 0.10090853 0.090324312
-0.36732197 0.13376348 0.055579942
-0.38098523 0.094812922 0.094829917
-0.27817154 0.084078707 0.063390955
-0.41375357 0.1234692 0.028999168
-0.27042812 0.058151148 0.05459372
-0.4001258 0.11745548 0.038666762
-0.28832427 0.050512932 0.077233613
-0.28358901 0.05229158 0.072086722
-0.27968433 0.05439584 0.067873418
-0.27679574 0.055798776 0.064835489
-0.27433074 0.055977233 0.06229955
-0.27182752 0.058070853 0.058736138
-0.25628707 0.064650737 0.043640487
-0.254489 0.065285482 0.039015777
-0.35407263 0.14871736 0.034518782
-0.38254601 0.10949291 0.092736766
-0.28544062 0.053497836 0.074622549
-0.36427683 0.13348243 0.053311847
-0.28901061 0.086686954 0.073380843
-0.36890954 0.12611078 0.053200111
-0.29000488 0.055679418 0.079838276
-0.28553447 0.057917945 0.07589934
-0.28335702 0.058233723 0.072787911
-0.28111604 0.059787869 0.06907019
-0.27606234 0.062107451 0.063855767
-0.27309728 0.063506551 0.059587229
-0.27122873 0.064656079 0.055076942
-0.25710374 0.069898583 0.03885825
-0.36884868 0.030689234 0.070047319
-0.40984422 0.072819985 0.072895959
-0.29055044 0.079739727 0.0099847224
-0.4096128 0.080973893 0.057056885
-0.37052077 0.15006979 0.050251286
-0.35845548 0.14478414 0.040670697
-0.3759703 0.08149907 0.092265427
-0.27849925 0.062738106 0.066357777
-0.41198361 0.11051654 0.065257818
-0.42548597 0.14318295 0.01681827
-0.37071922 0.028883303 0.064363211
-0.35585073 0.090516694 0.025983995
-0.38838071 0.039639577 0.075970128
-0.31015605 0.11033311 0.027105041
-0.29081383 0.06073761 0.081442453
-0.28591365 0.062923968 0.077320054
-0.28157023 0.065065145 0.071597561
-0.27642986 0.067376584 0.064948365
-0.27391419 0.068747289 0.060481254
-0.27239031 0.070160851 0.056266736
-0.27155384 0.071567096 0.052867331
-0.27056217 0.072020404 0.048779286
-0.37406161 0.092703156 0.035845954
-0.27014175 0.073491238 0.043603808
-0.37469095 0.10591949 0.07382068
-0.33446768 0.098089315 0.020021735
-0.37793654 0.11494853 0.061994787
-0.27855164 0.067771845 0.068347603
-0.37773052 0.11596928 0.057186592
-0.34380525 0.089510091 0.019099483
-0.26998597 0.073164299 0.037355065
-0.38204765 0.10402346 0.090894714
-0.28261581 0.071077876 0.072557971
-0.27994183 0.072551318 0.069038168
-0.27742842 0.073756978 0.065699294
-0.27566943 0.074795358 0.061861943
-0.41045544 0.1100923 0.060963597
-0.38680193 0.034078002 0.057090506
-0.27358097 0.076411314 0.057044815
-0.27293071 0.077057071 0.054514457
-0.27200907 0.077832915 0.050353914
-0.27174824 0.078927688 0.044526409
-0.39308289 0.07372997 0.10337315
-0.4026995 0.058234699 0.050329424
-0.36357909 0.14739056 0.034068972
-0.38100159 0.031821005 0.065138996
-0.28452751 0.076560579 0.073575959
-0.28134164 0.077998839 0.070007533
-0.27859634 0.079312503 0.066715159
-0.27687562 0.080297016 0.062518425
-0.27532116 0.081427291 0.058129299
-0.27426597 0.082053982 0.054211218
-0.32895985 0.10033835 0.019382987
-0.40560615 0.1124956 0.039533559
-0.40470782 0.10241204 0.052707825
-0.35607404 0.093908362 0.029561393
-0.40766573 0.07468459 0.06132159
-0.36092293 0.15549938 0.02748606
-0.36031169 0.13598101 0.043118123
-0.35374093 0.14568472 0.03458105
-0.35553029 0.15203865 0.026969444
-0.41141731 0.10463206 0.06338691
-0.28993466 0.029713573 0.019017028
-0.29286268 0.0309281 0.013354374
-0.29456922 0.031271502 0.0093614245
-0.29796335 0.029007846 0.0078724585
-0.27963254 0.027770204 0.054695543
-0.27004802 0.036269024 0.026571508
-0.27141598 0.03855487 0.021021953
-0.2892395 0.032885566 0.017551731
-0.29578203 0.031943597 0.0069390051
-0.30000547 0.034049377 0.0029562525
-0.30936435 0.093740039 0.012124574
-0.26547939 0.040131718 0.026608689
-0.26773381 0.040623851 0.022043519
-0.27423584 0.039775923 0.017629206
-0.37486231 0.10545234 0.061452933
-0.29150182 0.035598032 0.013059318
-0.29370576 0.036004037 0.0086834226
-0.29641226 0.036729224 0.0041973926
-0.40032741 0.069759391 0.095726475
-0.35574183 0.087028079 0.022604752
-0.26131198 0.042371832 0.031293876
-0.25972846 0.047224417 0.025641119
-0.26324895 0.043348826 0.02430566
-0.2662423 0.043642692 0.020529645
-0.30110499 0.095666245 0.014949039
-0.28485349 0.035500482 0.017897986
-0.41167533 0.077532679 0.065126255
-0.41016001 0.13858537 0.016167283
-0.39271134 0.067121275 0.085286379
-0.25793335 0.046885915 0.030326385
-0.26295233 0.047913834 0.019977832
-0.36136773 0.095008463 0.033796713
-0.28744355 0.041988716 0.013149312
-0.34432811 0.079899088 0.0065509677
-0.38093126 0.14006358 0.046538569
-0.41418579 0.12413237 0.024514556
-0.26903713 0.048023917 0.015559603
-0.29011974 0.038971744 0.013039105
-0.29615059 0.042204127 0.0036969818
-0.34861362 0.017628463 0.0036107339
-0.37516207 0.031696901 0.070777342
-0.41065899 0.1154708 0.041586287
-0.41180515 0.098418079 0.06160615
-0.25578192 0.049320854 0.032595076
-0.28961363 0.043294258 0.008832884
-0.29320356 0.040352017 0.0076794671
-0.29505897 0.09042833 0.013597863
-0.26622391 0.070349656 0.023722546
-0.2647464 0.060168833 0.016207591
-0.36078635 0.034861207 0.078134738
-0.41108361 0.12847623 0.01058514
-0.37772763 0.10445195 0.054115009
-0.3611342 0.084749773 0.024935225
-0.40908921 0.12643102 0.015987612
-0.37319744 0.12378157 0.050256453
-0.2546629 0.053259917 0.030811075
-0.25617743 0.054467045 0.025640678
-0.26095226 0.052151538 0.019329457
-0.26468763 0.053806253 0.016081743
-0.26908195 0.052579641 0.01432761
-0.28137991 0.045233421 0.014980352
-0.32923585 0.10566941 0.024269098
-0.34370476 0.085504726 0.017305918
-0.41083461 0.1392647 0.010547377
-0.25910392 0.055245616 0.020621559
-0.28281489 0.04953929 0.013896161
-0.28866732 0.04744719 0.0073157661
-0.29206833 0.045460083 0.0045652194
-0.33972669 0.1025544 0.027832098
-0.34540215 0.10019426 0.028910015
-0.3935129 0.11333622 0.052903067
-0.30785826 0.11236049 0.031294432
-0.35260075 0.014998728 0.0076648137
-0.28593081 0.046876289 0.011811872
-0.29806772 0.1059473 0.025152583
-0.35085538 0.10063536 0.034968294
-0.3504484 0.098071672 0.030592725
-0.3239474 0.027089363 0.0035784654
-0.38014603 0.0851487 0.033515722
-0.31086668 0.11407374 0.034425713
-0.374648 0.0045236284 0.038769871
-0.33471727 0.10089821 0.023170862
-0.2869834 0.051299624 0.0091366181
-0.29227138 0.050033025 0.0038081501
-0.34502363 0.10263076 0.033365875
-0.30326453 0.10053071 0.018271573
-0.27219272 0.069069661 0.024377624
-0.33242649 0.088103808 0.015008498
-0.38092518 0.038828023 0.080899686
-0.25368369 0.059243299 0.031928882
-0.2556102 0.060461268 0.025751155
-0.25933218 0.060677961 0.020408001
-0.34441853 0.10477564 0.036694869
-0.31011564 0.10469736 0.021104489
-0.2833291 0.054604433 0.012052851
-0.30212623 0.078369521 0.005150795
-0.36700991 0.091033898 0.03181468
-0.38998741 0.038466185 0.070042714
-0.34182397 0.02350306 0.0039517693
-0.28068209 0.057872087 0.014032753
-0.2864283 0.056619123 0.0089031365
-0.29749051 0.047841832 0.0014461838
-0.34954357 0.077668495 0.0082081091
-0.3981038 0.070210427 0.099865153
-0.32139456 0.010687558 0.080674805
-0.37730044 0.080255657 0.029785503
-0.29414481 0.055577345 0.0032855161
-0.32008901 0.086216062 0.0070243254
-0.35014671 0.10237303 0.037791323
-0.38861144 0.06089393 0.032499
-0.40307114 0.057159469 0.052751459
-0.40814865 0.072538003 0.078166112
-0.41467342 0.09058322 0.06906458
-0.27690348 0.056863315 0.016435256
-0.29027632 0.055477835 0.0065331934
-0.30222195 0.089525014 0.010599559
-0.41860169 0.14343874 0.0082821697
-0.31799966 0.1082872 0.023691585
-0.37422478 0.034503132 0.077839509
-0.25456721 0.066757917 0.033004396
-0.2544131 0.065289728 0.030715752
-0.25650263 0.066860236 0.026737375
-0.26048476 0.066292867 0.021532306
-0.40121579 0.068571135 0.047869846
-0.38656956 0.1066625 0.050989315
-0.28643712 0.062024862 0.0090351924
-0.28996828 0.058225505 0.0061145201
-0.31314939 0.1123125 0.029835863
-0.37369841 0.087099709 0.032244578
-0.27277088 0.064164825 0.019906323
-0.35240334 0.0027598506 0.080576181
-0.37991318 0.035652116 0.077562034
-0.37676728 0.028954158 0.059723776
-0.38246736 0.10652447 0.05253898
-0.2778641 0.06327682 0.017832667
-0.28113887 0.063372277 0.01348422
-0.26710391 0.065037474 0.018435871
-0.38510954 0.037043251 0.074775606
-0.41259077 0.10440144 0.068136841
-0.29045111 0.062217765 0.0062437905
-0.29557085 0.061459355 0.0041450746
-0.2955187 0.084659316 0.0097136702
-0.40787295 0.10744081 0.055981811
-0.31817228 0.10125309 0.018322455
-0.33435982 0.10948461 0.033472747
-0.32949397 0.012300149 0.080445752
-0.30829322 0.082110152 0.0055550933
-0.25805506 0.071635619 0.033966448
-0.25980595 0.071674883 0.028046243
-0.26265287 0.071079366 0.024218109
-0.28415889 0.06508638 0.010818974
-0.41486362 0.14541212 0.002978947
-0.41389948 0.12430302 0.017052397
-0.41477001 0.089104921 0.070179015
-0.40896147 0.11654503 0.028117329
-0.3773697 0.032662153 0.072341591
-0.41221821 0.11695714 0.035628289
-0.27703393 0.070178442 0.020493058
-0.27788895 0.068131082 0.018506059
-0.28800514 0.0679878 0.0092475694
-0.36302394 0.099130929 0.041169569
-0.28136709 0.06973055 0.014537938
-0.28514624 0.069135614 0.011495479
-0.29211533 0.067683123 0.0068813376
-0.29553458 0.067572162 0.004670348
-0.33797473 0.087598562 0.016143627
-0.34764546 0.022728724 0.0048426623
-0.39452755 0.068892933 0.094307289
-0.31772938 0.11262875 0.030196074
-0.3877002 0.06912189 0.091742277
-0.41344339 0.12201067 0.030592632
-0.31288937 0.082508244 0.0045599472
-0.40623003 0.086993501 0.099048585
-0.27467009 0.075493783 0.026176345
-0.35805219 0.027414525 0.054511204
-0.36673626 0.096811742 0.037811853
-0.27198693 0.074544787 0.03203455
-0.27781692 0.075703181 0.02112666
-0.28214651 0.07520996 0.01642322
-0.28647324 0.074358292 0.012864767
-0.28911781 0.074480198 0.010736484
-0.29282004 0.073828295 0.0076321792
-0.29664132 0.072696239 0.0052499529
-0.36859089 0.034535907 0.07867986
-0.33309048 0.086405091 0.011507874
-0.36509565 0.07783033 0.024012985
-0.41129321 0.11865266 0.022817366
-0.37034327 0.15683682 0.03744974
-0.32678548 0.084068075 0.0045430316
-0.41378912 0.099461406 0.084986553
-0.40410358 0.064694427 0.055416469
-0.32882646 0.11105801 0.03222958
-0.40875494 0.13621022 0.030142535
-0.27276638 0.079909392 0.038625244
-0.27403075 0.080642983 0.032809667
-0.27627227 0.081001379 0.027211199
-0.29348472 0.079556532 0.0088305846
-0.40237215 0.10776269 0.050155468
-0.35315648 0.024904666 0.015668891
-0.40696961 0.11105234 0.047451198
-0.41729254 0.14818105 0.013018049
-0.4207187 0.14834616 0.015125293
-0.42138553 0.14597116 0.019453038
-0.32298473 0.074010871 0.088397712
-0.42510301 0.14464653 0.020572085
-0.41538608 0.10833187 0.072613344
-0.41349271 0.10947689 0.069304004
-0.40362945 0.060827561 0.053871185
-0.41653344 0.14086762 0.026092913
-0.41336656 0.14035158 0.024081673
-0.4105956 0.073782146 0.06894964
-0.29863328 0.10984339 0.031923514
-0.4156104 0.10187713 0.076996759
-0.26498649 0.072775528 0.028964916
-0.29346153 0.10777057 0.034856975
-0.2966285 0.11028878 0.036819197
-0.38987458 0.12787242 0.060991682
-0.30105495 0.11220744 0.037046827
-0.41191775 0.12115297 0.017455984
-0.26674664 0.072645694 0.032672748
-0.26947057 0.071621537 0.030500576
-0.30473688 0.1136993 0.038036972
-0.41243157 0.13785794 0.032346405
-0.41530669 0.13829269 0.032466862
-0.41100428 0.11932252 0.053947832
-0.26436758 0.072795443 0.035900157
-0.29123715 0.10710405 0.040639699
-0.3093513 0.11543033 0.040166136
-0.37187278 0.10351729 0.071460679
-0.41867787 0.1372913 0.033142921
-0.29527494 0.11016028 0.042302594
-0.31459972 0.11628709 0.039570842
-0.41571897 0.10010029 0.079381347
-0.29950061 0.11232736 0.041034147
-0.31697085 0.11682902 0.042351089
-0.3985056 0.060026653 0.079752341
-0.40729296 0.13411877 0.035769828
-0.41223338 0.13569756 0.037330508
-0.42119351 0.13269384 0.033416145
-0.3076545 0.088737197 0.0097459396
-0.30249688 0.11380249 0.043904364
-0.32153502 0.11664381 0.04257255
-0.41434529 0.13723935 0.035282407
-0.41790792 0.13316713 0.038067669
-0.26241365 0.070383258 0.041597415
-0.30822852 0.11564092 0.046073347
-0.39686757 0.066756032 0.040281326
-0.39607066 0.049078166 0.077864081
-0.2897906 0.10641608 0.046418697
-0.29412812 0.10962258 0.047412161
-0.32745889 0.11551384 0.044406474
-0.33090296 0.056168333 0.089367583
-0.40722969 0.1327239 0.040599346
-0.41066125 0.11422761 0.067430362
-0.365275 0.0043978933 0.053999983
-0.36246374 0.0045655053 0.058423843
-0.36224902 0.0031643221 0.064790636
-0.36326534 0.0077471696 0.065891564
-0.36174577 0.0025182208 0.070791729
-0.35932517 0.0020702258 0.076723427
-0.39767727 0.05400034 0.079232663
-0.35438183 0.081559323 0.019657781
-0.37230211 0.0033442462 0.049121626
-0.37262169 0.0081613716 0.050066192
-0.36894432 0.0044199023 0.053037714
-0.3839224 0.04351075 0.08426778
-0.38774544 0.043790631 0.082196392
-0.3755284 0.0077733155 0.044084981
-0.3615495 0.0072802715 0.060386535
-0.36319518 0.0077391863 0.071660921
-0.35639191 0.0069938842 0.081823826
-0.38066548 0.044701278 0.086331859
-0.39889944 0.089897126 0.10708994
-0.39510891 0.054323114 0.081691146
-0.40240857 0.10159226 0.10075834
-0.35605648 0.096824773 0.032706998
-0.36994797 0.0069652814 0.052575864
-0.36590642 0.0094692633 0.054659918
-0.36004514 0.010909937 0.05863433
-0.40308619 0.091391772 0.10355161
-0.33552647 0.012948418 0.075842343
-0.32984811 0.051618166 0.086721003
-0.32305884 0.1014794 0.018685348
-0.35973206 0.011175573 0.077943981
-0.40156382 0.08086329 0.10414661
-0.31514233 0.093184642 0.012803945
-0.38876969 0.048279934 0.083970338
-0.36236766 0.011291113 0.071748078
-0.40837306 0.088687398 0.054076102
-0.33485812 0.016168803 0.076443896
-0.32744092 0.017424334 0.082144305
-0.39287302 0.047850907 0.079896703
-0.37427172 0.011932507 0.044475816
-0.37321168 0.011431267 0.048727427
-0.36880881 0.01467037 0.049600516
-0.36610296 0.012439469 0.053171836
-0.36160654 0.015231455 0.053449493
-0.40197533 0.086389422 0.10456014
-0.39524636 0.059770145 0.082652986
-0.39156845 0.043149047 0.077481031
-0.32926765 0.068123057 0.089559808
-0.40609473 0.098795198 0.099239498
-0.36402869 0.017762356 0.049725033
-0.35688269 0.018419744 0.054113045
-0.39866257 0.04830008 0.073464498
-0.38555288 0.13530067 0.059156079
-0.35808352 0.01581475 0.072705343
-0.36299336 0.023443365 0.048506916
-0.40854836 0.10477066 0.094087511
-0.33017218 0.024124769 0.07618086
-0.38727617 0.07373096 0.10380147
-0.33077216 0.070918463 0.086324096
-0.35632366 0.023337385 0.053785037
-0.32098439 0.080918111 0.0024827346
-0.32530424 0.030983744 0.074414611
-0.35542831 0.024141608 0.059091013
-0.3551352 0.022405604 0.065772481
-0.35338846 0.029352656 0.072009712
-0.35012046 0.029584615 0.074968636
-0.32606173 0.035008214 0.07551863
-0.40132704 0.084352538 0.049324144
-0.31915092 0.037301853 0.08283715
-0.35685289 0.077591114 0.020017592
-0.32728451 0.038953595 0.07645075
-0.32512146 0.0407447 0.0799326
-0.32099387 0.040596455 0.083449155
-0.37008059 0.15052402 0.036337469
-0.36673099 0.13900401 0.039058488
-0.38968059 0.12403747 0.056896891
-0.39020875 0.10510616 0.04942476
-0.36742342 0.037232228 0.081936032
-0.34870842 0.07199426 0.0024451725
-0.38198045 0.078192085 0.031605143
-0.38421634 0.11347279 0.054506049
-0.33007708 0.045636058 0.079587415
-0.32706985 0.044820607 0.081975982
-0.38083598 0.098126687 0.047520716
-0.40663138 0.095497981 0.053518351
-0.38549906 0.090369172 0.04256317
-0.36796558 0.087022103 0.029056214
-0.36601433 0.15230657 0.033072703
-0.3622016 0.027937079 0.051274098
-0.35519344 0.014067624 0.011084795
-0.35558581 0.01335101 0.015258554
-0.35627177 0.017789807 0.014902964
-0.35543522 0.012218984 0.020734785
-0.35668096 0.016919186 0.022800224
-0.32267827 0.023173561 0.0039832518
-0.32639208 0.089309558 0.014432548
-0.37468392 0.0090954471 0.039274145
-0.41113472 0.087644257 0.08666341
-0.35583082 0.016723379 0.010975767
-0.29835981 0.078295156 0.006775232
-0.41747835 0.1400288 0.0089000426
-0.40912542 0.085916407 0.091147065
-0.37316543 0.011944022 0.036501266
-0.41375244 0.1197023 0.025476694
-0.35278523 0.020305729 0.0082340958
-0.37094188 0.014990766 0.03814014
-0.36095756 0.011658112 0.063606694
-0.41176891 0.092045866 0.059352893
-0.36112028 0.015760235 0.027329285
-0.35825124 0.013757516 0.06081786
-0.35554668 0.021547591 0.017674983
-0.35523418 0.021980381 0.022726182
-0.35660869 0.023301719 0.027226506
-0.37078544 0.015945897 0.044206243
-0.35539249 0.017997919 0.05878244
-0.3581363 0.015547069 0.065609053
-0.36168352 0.012582883 0.068032801
-0.34843516 0.02736775 0.0088420566
-0.3521798 0.025032924 0.011101605
-0.36123577 0.092600726 0.030473296
-0.36629167 0.019801216 0.036864892
-0.41604653 0.10463757 0.083920851
-0.3524757 0.025989978 0.021777384
-0.32762828 0.1091863 0.027732566
-0.31650811 0.10372478 0.020056505
-0.36230302 0.02099964 0.031331133
-0.36694172 0.018997218 0.043102697
-0.40848643 0.11357125 0.03903392
-0.42037517 0.13625501 0.021641895
-0.36547998 0.023452045 0.043785229
-0.35543716 0.018805552 0.064889714
-0.34514743 0.097422428 0.025906688
-0.34808892 0.029267935 0.014663184
-0.30956355 0.086369134 0.0081166048
-0.31244186 0.088275343 0.0096960785
-0.31035975 0.097136393 0.015382485
-0.34601781 0.032490879 0.020730335
-0.34940988 0.028221274 0.023327762
-0.35175234 0.030299703 0.026403893
-0.3397648 0.096568964 0.021277599
-0.3625198 0.026207773 0.032233223
-0.36556539 0.025921402 0.03798594
-0.34528732 0.034808941 0.014428141
-0.34605309 0.031141603 0.016325174
-0.2974745 0.099684834 0.01860087
-0.34346718 0.036185183 0.0088627003
-0.38563761 0.087385267 0.039423011
-0.34506959 0.094868205 0.023597769
-0.38036394 0.090523049 0.037673775
-0.36464974 0.032789655 0.032018069
-0.36739028 0.030910252 0.038585179
-0.36848497 0.02990994 0.044846162
-0.36665329 0.028596686 0.050260276
-0.31282842 0.10768522 0.023085918
-0.3510294 0.09321294 0.02498417
-0.34312809 0.040552333 0.0055505354
-0.34621608 0.04169368 0.0091431104
-0.34693021 0.040180422 0.015091956
-0.34774077 0.039359108 0.022463474
-0.32497749 0.10989621 0.026958153
-0.34533286 0.04355704 0.005618263
-0.34786835 0.041384652 0.017894445
-0.37681082 0.033270225 0.041430961
-0.3815378 0.034338839 0.043740369
-0.37992918 0.031461626 0.048941918
-0.38764083 0.035666391 0.067380682
-0.41543907 0.13187729 0.0074670464
-0.34390116 0.048957102 0.0015347488
-0.34751719 0.048606135 0.0053554364
-0.34904662 0.046106577 0.010345709
-0.34899235 0.044481292 0.015412472
-0.35037082 0.045982935 0.018251816
-0.35026687 0.043669529 0.022310805
-0.33386225 0.020005953 0.0046356861
-0.38344157 0.032009572 0.054662086
-0.31598571 0.1109947 0.027157899
-0.38822991 0.035898872 0.05096266
-0.38509271 0.033354171 0.051272396
-0.35059616 0.04745277 0.013018414
-0.38411412 0.036976509 0.042702161
-0.38938874 0.038288966 0.045172207
-0.38990426 0.035571955 0.058353946
-0.41700566 0.10530425 0.079706579
-0.35051644 0.053292103 0.0052806828
-0.35170591 0.051309012 0.010093933
-0.35309708 0.052453056 0.012983102
-0.35285968 0.050376423 0.018266656
-0.35429645 0.049948625 0.022282993
-0.36665398 0.012575837 0.030174332
-0.38424343 0.039414212 0.038671397
-0.39171737 0.03727264 0.053623818
-0.31625053 0.11501438 0.035700791
-0.38922399 0.040451318 0.040591098
-0.39486569 0.040455148 0.052687932
-0.41400331 0.091714919 0.075382099
-0.32632142 0.08678218 0.0086225197
-0.39183414 0.043722361 0.040566064
-0.39279583 0.041054077 0.04399094
-0.394844 0.042410217 0.04708368
-0.39432326 0.039673723 0.059280865
-0.32211354 0.10369851 0.020115742
-0.32764968 0.087351702 0.011068963
-0.35325843 0.058630191 0.0052611642
-0.35575548 0.056891337 0.013736911
-0.35579073 0.055533767 0.019365383
-0.3052853 0.084291868 0.0072180917
-0.35544997 0.058913291 0.0087260902
-0.38739792 0.045728363 0.033906184
-0.3980346 0.043714821 0.060490157
-0.39679268 0.043053433 0.066236332
-0.34898439 0.079519086 0.014622433
-0.35111931 0.095628969 0.027318608
-0.3931824 0.050679609 0.036165439
-0.39436531 0.047963291 0.04017777
-0.3964507 0.047820918 0.04363361
-0.39792445 0.046604529 0.047996201
-0.39816755 0.045169845 0.053854119
-0.39564168 0.044201992 0.071610808
-0.39370543 0.042834133 0.072684735
-0.26418233 0.067922257 0.020634012
-0.35740906 0.063290566 0.014908327
-0.35886312 0.062170453 0.01958921
-0.40025994 0.047025792 0.055107068
-0.3551299 0.065259099 0.0063495301
-0.356491 0.06375628 0.010043131
-0.41262233 0.10211273 0.066829354
-0.39742577 0.054739632 0.04100164
-0.39892077 0.054070078 0.043894544
-0.40101498 0.05169332 0.049102165
-0.40161011 0.051430322 0.051714394
-0.40234184 0.050274335 0.056741584
-0.40181047 0.049027897 0.061944615
-0.40039372 0.048379838 0.067728728
-0.37068763 0.0068422463 0.031840868
-0.35948858 0.010337887 0.024050374
-0.34261933 0.029684881 0.0070639318
-0.3434673 0.082869135 0.014253564
-0.3497906 0.083289191 0.018475182
-0.30641422 0.077608854 0.0039239153
-0.32241067 0.084288657 0.0044046715
-0.34370631 0.074418522 0.0013051182
-0.33942956 0.099136233 0.024559811
-0.30421439 0.10369883 0.021012021
-0.32939038 0.025874997 0.0037596636
-0.34569257 0.016359335 0.0062901415
-0.33990043 0.018352017 0.0051605813
-0.33794355 0.085007735 0.012450369
-0.34197652 0.1039172 0.031256795
-0.29055753 0.08992137 0.015578116
-0.36582047 0.01706549 0.032373793
-0.34742731 0.08120279 0.01677062
-0.33521473 0.024507122 0.0035149828
-0.36537188 0.0073690545 0.029546082
-0.37774533 0.074679852 0.027321877
-0.32257766 0.088209279 0.011455766
-0.34446254 0.10686205 0.042080037
-0.29757872 0.08881028 0.011147577
-0.3003543 0.05393441 -0.00020289794
-0.34570807 0.081353642 0.013154047
-0.27176771 0.058626115 0.015420007
-0.33767015 0.070323348 -0.00077775866
-0.37082869 0.011159722 0.032966923
-0.30672365 0.031865552 0.0023161173
-0.30051467 0.073180526 0.0038836524
-0.35164306 0.073439397 0.0051093083
-0.35976112 0.0096156336 0.027104145
-0.30191198 0.060274318 0.00066433847
-0.38035718 0.10232995 0.050378934
-0.32847464 0.021827647 0.0044869287
-0.34487438 0.10723257 0.046601929
-0.3749463 0.10046867 0.05000516
-0.34007037 0.10946704 0.039948042
-0.33776745 0.11111768 0.04212752
-0.33380944 0.1126878 0.040844351
-0.3283534 0.11440394 0.039449073
-0.32237276 0.11570867 0.038387991
-0.38535643 0.10136795 0.048522651
-0.37431428 0.09984874 0.046441209
-0.33420831 0.11182016 0.037927538
-0.3284525 0.11344735 0.036797512
-0.32161742 0.1145622 0.034935236
-0.38351959 0.097080231 0.047254123
-0.3057954 0.027775558 0.0043248534
-0.31055531 0.02572911 0.0055250973
-0.31617853 0.0243474 0.0056027118
-0.30051887 0.02959655 0.0042265505
-0.31081408 0.03049325 0.0023959987
-0.31377798 0.029782498 0.0025097746
-0.31815794 0.028671162 0.0029011704
-0.3826744 0.072946601 0.030248599
-0.38327086 0.12402277 0.050841991
-0.36944565 0.0049247732 0.036278814
-0.38828254 0.070713423 0.033625573
-0.39351374 0.068415374 0.037587013
-0.3698982 0.13129541 0.044099826
-0.27657494 0.034500718 0.021992091
-0.27972037 0.036930725 0.018205717
-0.30154508 0.039903596 0.0014908761
-0.30767021 0.035873629 0.0020190477
-0.31428534 0.037087806 0.0014280193
-0.32004526 0.034950279 0.001987569
-0.32606459 0.033547372 0.0024785288
-0.33095747 0.031553298 0.0037937164
-0.33748233 0.03156516 0.0050219577
-0.27992046 0.042675249 0.015334162
-0.36985576 0.13431197 0.04159978
-0.27374491 0.044166952 0.015862579
-0.30389422 0.041935034 0.00083596632
-0.30862927 0.040048189 0.00076634623
-0.3834483 0.033560209 0.067783728
-0.31119344 0.045118481 -0.0011078641
-0.31649163 0.042598829 -0.00077171251
-0.32057646 0.039736517 -0.00064241141
-0.32307911 0.042595513 -0.00070974976
-0.32845965 0.039765194 -0.00014580414
-0.33369881 0.038734078 0.0010289419
-0.33418924 0.035734743 0.0023959503
-0.33863476 0.036322124 0.004353255
-0.27578092 0.051283389 0.01408301
-0.3049911 0.046868816 -0.00063930079
-0.27371818 0.048917137 0.013807603
-0.30016756 0.048959583 -0.00031255372
-0.3389526 0.03920351 0.0031209365
-0.34669876 0.032538623 0.025711713
-0.35837144 0.02931075 0.028781829
-0.3610909 0.14097048 0.037616573
-0.27176893 0.053596139 0.013739878
-0.31350425 0.047630042 -0.0016262904
-0.3177959 0.046443328 -0.0009245351
-0.32461283 0.04804375 -0.0015018061
-0.33060056 0.046468616 -0.0011672452
-0.33660299 0.045449242 -0.00066388212
-0.34097993 0.043803342 0.0019404646
-0.30757171 0.052449368 -0.0010017082
-0.31154841 0.052395351 -0.00099872611
-0.3145417 0.051692426 -0.0010088459
-0.31927526 0.050749086 -0.0015560258
-0.34826335 0.037647299 0.025700456
-0.35334113 0.036456153 0.026935764
-0.35982496 0.03425701 0.028315853
-0.33301651 0.052799769 -0.0016336218
-0.35875052 0.036843121 0.027436081
-0.30818385 0.059156679 -0.00068318471
-0.31523377 0.057869144 -0.001249928
-0.32030562 0.056112058 -0.0017703548
-0.3272284 0.054666333 -0.0019041933
-0.33808878 0.052389406 -0.0017458759
-0.35184193 0.039518073 0.026100762
-0.36704051 0.037805386 0.031996254
-0.35474432 0.043350235 0.025275847
-0.36130494 0.041319385 0.026943376
-0.37214476 0.033910856 0.038905408
-0.40243226 0.08201021 0.050584335
-0.34251854 0.05262018 -0.0009239018
-0.37148434 0.036977656 0.035457954
-0.37616774 0.036638662 0.037002839
-0.29930556 0.067526028 0.0029075295
-0.30315176 0.066029623 0.0011372194
-0.30820334 0.064893723 -0.00017936714
-0.31178927 0.0642424 -0.00088697672
-0.31643289 0.063220054 -0.0010916255
-0.32301447 0.062204443 -0.00149264
-0.32819507 0.060407184 -0.0014668405
-0.33251023 0.05808749 -0.0015177466
-0.33566543 0.059789144 -0.0017385129
-0.33991152 0.057641678 -0.0018576998
-0.34524283 0.05630213 -0.00051562861
-0.34794375 0.053841479 0.0018667486
-0.37549794 0.039316647 0.03359513
-0.35725996 0.048989795 0.023822714
-0.36315536 0.047095641 0.025513332
-0.36930984 0.044258475 0.028673805
-0.37585998 0.04291749 0.030057263
-0.38008493 0.039367259 0.035685927
-0.3493346 0.056247823 0.0018943436
-0.3802399 0.042509608 0.032022864
-0.3049064 0.072259493 0.0027794465
-0.31006163 0.070823289 0.0013276786
-0.3129735 0.069702297 0.00059637055
-0.31755093 0.06883613 -0.00079715624
-0.32431197 0.067329861 -0.0014567599
-0.32853016 0.066430822 -0.0014302973
-0.33158755 0.065776289 -0.0016686581
-0.33645278 0.064857274 -0.0014631003
-0.34111437 0.063463025 -0.001178477
-0.34771004 0.061532371 0.00018150918
-0.35070011 0.060343608 0.0020672288
-0.35825637 0.055204824 0.022643181
-0.3594518 0.052699856 0.023580225
-0.36385953 0.053549886 0.024001414
-0.36573461 0.050597139 0.02561876
-0.37070459 0.04929667 0.026585039
-0.37742984 0.047350138 0.027912689
-0.38256383 0.046831958 0.030099008
-0.38793218 0.042534485 0.037386298
-0.3554945 0.0024409145 0.081076488
-0.37222472 0.051586784 0.025733545
-0.37799412 0.049646325 0.027191786
-0.31439027 0.074415334 0.0013720244
-0.31900263 0.074506104 0.00073099323
-0.32581168 0.072947234 -0.00018903986
-0.32964355 0.070535749 -0.0010693893
-0.33221596 0.071943536 -0.0011689719
-0.34241459 0.068934754 -0.00068113208
-0.3485119 0.067490742 0.0010005906
-0.35194075 0.065820009 0.0027496014
-0.39056724 0.045840479 0.036742274
-0.31240016 0.076942153 0.0024757683
-0.36059758 0.060205586 0.021686209
-0.36672992 0.058107056 0.023548828
-0.3732667 0.056661077 0.024315888
-0.37908903 0.054251418 0.026387658
-0.38434631 0.054022528 0.029154312
-0.38561788 0.050688125 0.030247485
-0.3892414 0.052585781 0.032138184
-0.33409268 0.075839147 0.00030774809
-0.35287151 0.070357993 0.0044814944
-0.31569353 0.080313399 0.0026332512
-0.36027682 0.065845162 0.019312246
-0.32133073 0.022475233 0.0078692427
-0.33268833 0.019474229 0.010015409
-0.32706314 0.020935388 0.0088695753
-0.33827096 0.017973801 0.01102665
-0.30952239 0.026091365 0.010141984
-0.30343929 0.026993467 0.0098057557
-0.34969115 0.013960324 0.014336284
-0.34382918 0.016458252 0.013210913
-0.31450123 0.024859792 0.010424737
-0.32690579 0.022160331 0.011737705
-0.32349971 0.022692317 0.011339546
-0.32132953 0.025538268 0.01395011
-0.31514791 0.027362572 0.013533415
-0.30954087 0.028354427 0.012837596
-0.2954157 0.028468216 0.014089361
-0.34205446 0.018867569 0.014829885
-0.33824122 0.02008108 0.013628922
-0.33379215 0.02151704 0.01306568
-0.33188483 0.022827497 0.016025018
-0.32722694 0.024187928 0.014598115
-0.30478516 0.028400155 0.012643052
-0.30126461 0.027367746 0.015008467
-0.30450276 0.029062325 0.016498819
-0.34900787 0.013704773 0.020033728
-0.34362182 0.019294651 0.019202933
-0.33770233 0.021487312 0.017238243
-0.30853671 0.029171543 0.016759068
-0.34654918 0.016138893 0.018643616
-0.31426242 0.027575744 0.018729713
-0.30121046 0.025902925 0.021083016
-0.29519492 0.027101828 0.020083167
-0.34649694 0.017068245 0.020741533
-0.32510826 0.024159534 0.021082789
-0.31973454 0.025842497 0.019882726
-0.35245681 0.010988235 0.026921697
-0.34831816 0.013641106 0.026038818
-0.33067822 0.022334857 0.022385944
-0.30736032 0.027832272 0.022889409
-0.29344589 0.027267521 0.025610108
-0.28843766 0.028318761 0.025074014
-0.28197289 0.030723853 0.023899868
-0.28205049 0.032446057 0.021167232
-0.34656012 0.016841 0.02512192
-0.34248459 0.01876037 0.025207147
-0.33614478 0.020628048 0.023494348
-0.31275254 0.026784023 0.024422381
-0.30443916 0.025394319 0.024111278
-0.29913872 0.025503552 0.027557556
-0.27786711 0.032427266 0.023997767
-0.31826696 0.025041429 0.025550853
-0.30487773 0.023751775 0.028637175
-0.34762347 0.011919601 0.031209607
-0.32911175 0.021532094 0.028065441
-0.32362854 0.023282306 0.026821759
-0.30769324 0.026134493 0.0270871
-0.28600746 0.028815182 0.02984553
-0.28117579 0.029325141 0.028767185
-0.27594215 0.031716272 0.027833749
-0.35769737 0.0083298478 0.033454731
-0.35130972 0.010176744 0.033003122
-0.34120306 0.017977964 0.030640349
-0.33472922 0.019850481 0.029167227
-0.31040448 0.025711166 0.030070759
-0.36404079 0.0063956026 0.035123497
-0.31664345 0.024244526 0.03117853
-0.30338356 0.02254854 0.033753727
-0.30086747 0.02456286 0.030983401
-0.39196587 0.068835072 0.091191813
-0.34406751 0.011192607 0.037300196
-0.32828522 0.020519814 0.034161478
-0.3221316 0.022496084 0.032368876
-0.31017181 0.024397412 0.035609841
-0.27860415 0.029256621 0.03459084
-0.27404821 0.031590886 0.0334423
-0.26887298 0.035551965 0.032373179
-0.35640278 0.0075823665 0.039736822
-0.3507646 0.0093516503 0.037894081
-0.33448818 0.018759834 0.035029262
-0.30681935 0.02278824 0.036234055
-0.28366083 0.028493987 0.036901087
-0.26391274 0.039747223 0.032210618
-0.36189881 0.0060823262 0.040401518
-0.33990911 0.012219394 0.037787318
-0.33805856 0.017905099 0.034608766
-0.31529802 0.023442755 0.036818128
-0.3018004 0.021956498 0.039388925
-0.37349278 0.0033008922 0.043169983
-0.36814249 0.0042281859 0.042073138
-0.34241903 0.011760846 0.042983837
-0.33693874 0.012324357 0.041739017
-0.32613373 0.020158399 0.038778927
-0.32108796 0.021517297 0.038686078
-0.30540034 0.022034535 0.038974375
-0.29795706 0.022772023 0.039817244
-0.27823877 0.029072551 0.04014438
-0.27483565 0.03088692 0.038015071
-0.27234972 0.03267289 0.03967974
